24.0 -11.732180635980104 -6.455132852631691 255 0 0
24.0 -11.73235787470825 -6.763366257127883 255 0 0
24.0 -11.732535148136288 -7.071660007723845 255 0 0
24.0 -11.73271245627441 -7.3800141221432005 255 0 0
24.0 -11.73288979913281 -7.688428618116546 255 0 0
24.0 -11.73306717672169 -7.996903513381323 255 0 0
24.0 -11.73324458905125 -8.305438825682021 255 0 0
24.0 -11.7334220361317 -8.614034572770047 255 0 0
24.0 -12.38344712184405 -6.3765943147405775 255 0 0
24.0 -12.383687791172024 -6.684416104092777 255 0 0
24.0 -12.383928507556611 -6.992298079973242 255 0 0
24.0 -12.384169271011615 -7.30024026003556 255 0 0
24.0 -12.384410081550843 -7.608242661940255 255 0 0
24.0 -12.384650939188113 -7.916305303354659 255 0 0
24.0 -12.384891843937236 -8.224428201953119 255 0 0
24.0 -12.385132795812039 -8.532611375416856 255 0 0
24.0 -12.385373794826354 -8.84085484143405 255 0 0
24.0 -12.385614840994013 -9.149158617699701 255 0 0
24.0 -13.03361664170262 -6.913143906819861 255 0 0
24.0 -13.033920527839971 -7.220675251282984 255 0 0
24.0 -13.034224473328154 -7.528266658509643 255 0 0
24.0 -13.034528478184559 -7.835918146097429 255 0 0
24.0 -13.034832542426578 -8.143629731650911 255 0 0
24.0 -13.03513666607162 -8.4514014327815 255 0 0
24.0 -13.03544084913709 -8.759233267107529 255 0 0
24.0 -13.035745091640406 -9.067125252254108 255 0 0
24.0 -13.03604939359899 -9.375077405853338 255 0 0
24.0 -13.036353755030273 -9.683089745544184 255 0 0
24.0 -13.03665817595169 -9.99116228897253 255 0 0
24.0 -13.68233966556445 -7.448499784316628 255 0 0
24.0 -13.682706486768955 -7.75574121370613 255 0 0
24.0 -13.68307337953619 -8.063042582473136 255 0 0
24.0 -13.683440343887096 -8.370403908159613 255 0 0
24.0 -13.683807379842623 -8.677825208314408 255 0 0
24.0 -13.684174487423734 -8.985306500493117 255 0 0
24.0 -13.684541666651395 -9.292847802258287 255 0 0
24.0 -13.684908917546586 -9.600449131179293 255 0 0
24.0 -13.685276240130287 -9.908110504832392 255 0 0
24.0 -13.685643634423494 -10.215831940800616 255 0 0
24.0 -13.686011100447207 -10.523613456673951 255 0 0
24.0 -13.686378638222434 -10.831455070049264 255 0 0
24.0 -14.329191623038183 -7.675773682601731 255 0 0
24.0 -14.329621015308286 -7.9826659264654 255 0 0
24.0 -14.33005049124678 -8.289617969218112 255 0 0
24.0 -14.330480050878124 -8.596629828339598 255 0 0
24.0 -14.330909694226785 -8.9037015213163 255 0 0
24.0 -14.331339421317235 -9.210833065641578 255 0 0
24.0 -14.331769232173967 -9.518024478815581 255 0 0
24.0 -14.332199126821468 -9.82527577834531 255 0 0
24.0 -14.332629105284248 -10.132586981744495 255 0 0
24.0 -14.333059167586818 -10.439958106533794 255 0 0
24.0 -14.333489313753704 -10.747389170240702 255 0 0
24.0 -14.33391954380944 -11.054880190399446 255 0 0
24.0 -14.334349857778566 -11.362431184551196 255 0 0
24.0 -14.975465491405085 -8.515646294834266 255 0 0
24.0 -14.975957343145119 -8.822309478012798 255 0 0
24.0 -14.976449290626892 -9.129032354927016 255 0 0
24.0 -14.976941333878365 -9.435814943008209 255 0 0
24.0 -14.97743347292751 -9.74265725969448 255 0 0
24.0 -14.977925707802305 -10.049559322430628 255 0 0
24.0 -14.978418038530739 -10.356521148668342 255 0 0
24.0 -14.978910465140814 -10.663542755866112 255 0 0
24.0 -14.97940298766054 -10.970624161489129 255 0 0
24.0 -14.979895606117944 -11.277765383009479 255 0 0
24.0 -14.980388320541058 -11.584966437906038 255 0 0
24.0 -14.980881130957927 -11.89222734366451 255 0 0
24.0 -14.981374037396607 -12.199548117777324 255 0 0
24.0 -15.620431823038182 -9.353819682719427 255 0 0
24.0 -15.620985880749679 -9.660254103493417 255 0 0
24.0 -15.621540046202545 -9.966748113120497 255 0 0
24.0 -15.622094319428207 -10.273301728983748 255 0 0
24.0 -15.622648700458111 -10.57991496847302 255 0 0
24.0 -15.623203189323707 -10.886587848984822 255 0 0
24.0 -15.623757786056464 -11.193320387922533 255 0 0
24.0 -15.624312490687862 -11.500112602696273 255 0 0
24.0 -15.62486730324939 -11.806964510722963 255 0 0
24.0 -15.625422223772551 -12.113876129426215 255 0 0
24.0 -15.625977252288862 -12.42084747623651 255 0 0
24.0 -15.626532388829853 -12.727878568591088 255 0 0
24.0 -15.627087633427061 -13.034969423934008 255 0 0
24.0 -16.263478690320934 -9.884152508500412 255 0 0
24.0 -16.264094582026196 -10.190298997834105 255 0 0
24.0 -16.264710593364306 -10.496504954080022 255 0 0
24.0 -16.265326724370134 -10.802770394566354 255 0 0
24.0 -16.265942975078545 -11.109095336628123 255 0 0
24.0 -16.266559345524435 -11.415479797607063 255 0 0
24.0 -16.267175835742698 -11.721923794851671 255 0 0
24.0 -16.26779244576825 -12.028427345717096 255 0 0
24.0 -16.268409175636023 -12.334990467565326 255 0 0
24.0 -16.26902602538095 -12.641613177765066 255 0 0
24.0 -16.269642995037994 -12.948295493691814 255 0 0
24.0 -16.270260084642118 -13.255037432727713 255 0 0
24.0 -16.270877294228313 -13.561839012261778 255 0 0
24.0 -16.9064577164498 -11.0250893709518 255 0 0
24.0 -16.90713543021708 -11.331067160141663 255 0 0
24.0 -16.907813275505582 -11.637104329228324 255 0 0
24.0 -16.908491252353592 -11.943200895498828 255 0 0
24.0 -16.909169360799428 -12.249356876247031 255 0 0
24.0 -16.9098476008814 -12.555572288773464 255 0 0
24.0 -16.910525972637842 -12.861847150385413 255 0 0
24.0 -16.911204476107102 -13.168181478396784 255 0 0
24.0 -16.91188311132755 -13.47457529012831 255 0 0
24.0 -16.912561878337563 -13.78102860290741 255 0 0
24.0 -16.913240777175528 -14.087541434068276 255 0 0
24.0 -16.913919807879857 -14.39411380095173 255 0 0
24.0 -17.546786135583105 -11.55250525153524 255 0 0
24.0 -17.547525158462633 -11.858195912147838 255 0 0
24.0 -17.548264324602847 -12.163945831348906 255 0 0
24.0 -17.549003634045402 -12.469755026371162 255 0 0
24.0 -17.54974308683198 -12.775623514454043 255 0 0
24.0 -17.55048268300427 -13.081551312843565 255 0 0
24.0 -17.55122242260398 -13.387538438792541 255 0 0
24.0 -17.551962305672845 -13.693584909560435 255 0 0
24.0 -17.5527023322526 -13.999690742413446 255 0 0
24.0 -17.553442502385 -14.305855954624366 255 0 0
24.0 -17.55640461927683 -15.5311109427394 255 0 0
24.0 -17.55714550779941 -15.837573311067649 255 0 0
24.0 -18.185700550041865 -12.078756466459154 255 0 0
24.0 -18.1865006097459 -12.384160519856799 255 0 0
24.0 -18.187300824371427 -12.689623710903538 255 0 0
24.0 -18.188101193963433 -12.995146056777855 255 0 0
24.0 -18.188901718566957 -13.300727574664998 255 0 0
24.0 -18.189702398227023 -13.60636828175683 255 0 0
24.0 -18.19050323298869 -13.912068195251912 255 0 0
24.0 -18.191304222897028 -14.217827332355366 255 0 0
24.0 -18.196915500151952 -16.359800999751908 255 0 0
24.0 -18.197717732858358 -16.666034545910197 255 0 0
24.0 -18.82406646396651 -12.908964835469094 255 0 0
24.0 -18.824927456064906 -13.214141818738588 255 0 0
24.0 -18.82578861471577 -13.519377836209749 255 0 0
24.0 -18.826649939967446 -13.82467290501386 255 0 0
24.0 -18.82751143186827 -14.130027042288724 255 0 0
24.0 -18.828373090466624 -14.435440265178874 255 0 0
24.0 -19.46022738039887 -13.432612694207858 255 0 0
24.0 -19.461148880303696 -13.737503988727612 255 0 0
24.0 -19.462070558269332 -14.042454197189214 255 0 0
24.0 -19.4629924143474 -14.347463336670193 255 0 0
24.0 -19.463914448589534 -14.652531424254661 255 0 0
24.0 -19.46483666104738 -14.957658477033354 255 0 0
24.0 -19.465759051772622 -15.262844512103523 255 0 0
24.0 -20.097933784485285 -14.869102683932564 255 0 0
24.0 -20.0989160925089 -15.173885240603399 255 0 0
24.0 -20.099898590189206 -15.478726642412687 255 0 0
24.0 -20.110718597739897 -18.83587072066594 255 0 0
24.0 -20.111703375591247 -19.141419595431316 255 0 0
24.0 -20.731478672737214 -15.389594744321299 255 0 0
24.0 -20.732520987314274 -15.694092287509772 255 0 0
24.0 -20.73356350291229 -15.998648556144884 255 0 0
24.0 -20.73460621958943 -16.303263567216902 255 0 0
24.0 -20.73564913740387 -16.60793733772276 255 0 0
24.0 -20.736692256413818 -16.9126698846659 255 0 0
24.0 -20.7377355766775 -17.21746122505637 255 0 0
24.0 -20.73877909825316 -17.522311375910675 255 0 0
24.0 -20.739822821199077 -17.827220354251995 255 0 0
24.0 -20.740866745573538 -18.13218817711005 255 0 0
24.0 -20.74191087143486 -18.437214861521145 255 0 0
24.0 -20.742955198841386 -18.742300424528093 255 0 0
24.0 -20.743999727851474 -19.04744488318036 255 0 0
24.0 -20.7460893909159 -19.6579105556516 255 0 0
24.0 -20.747134525087073 -19.963231803602362 255 0 0
24.0 -21.364733736375165 -16.213156344466846 255 0 0
24.0 -21.365836003910623 -16.517427996380235 255 0 0
24.0 -21.366938483816472 -16.821758271347996 255 0 0
24.0 -21.368041176154097 -17.126147186313872 255 0 0
24.0 -21.369144080984892 -17.430594758228033 255 0 0
24.0 -21.370247198370297 -17.735101004047294 255 0 0
24.0 -21.371350528371757 -18.03966594073496 255 0 0
24.0 -21.37245407105075 -18.344289585260906 255 0 0
24.0 -21.373557826468776 -18.64897195460147 255 0 0
24.0 -21.374661794687352 -18.953713065739613 255 0 0
24.0 -21.997882656059105 -17.339114779022157 255 0 0
24.0 -21.99904485810488 -17.643219354284792 255 0 0
24.0 -102.20154830049552 -97.78853392602107 255 0 0
24.0 -102.20923079590942 -98.05830387446397 255 0 0
24.0 -102.21691457059438 -98.32811874436355 255 0 0
24.0 -102.22459962486995 -98.59797854694101 255 0 0
24.0 -102.68559877210254 -98.69799427508723 255 0 0
24.0 -102.69331552273789 -98.9676287902372 255 0 0
24.0 -102.70103355734287 -99.23730816915659 255 0 0
24.0 -102.70875287623792 -99.50703242304348 255 0 0
24.0 -103.13790170621485 -98.5284837312543 255 0 0
24.0 -103.14564744424041 -98.79780379361408 255 0 0
24.0 -103.15339446962291 -99.06716861749912 255 0 0
24.0 -103.1611427826833 -99.3365782140695 255 0 0
24.0 -103.16889238374264 -99.60603259448904 255 0 0
24.0 -103.17664327312217 -99.87553176992527 255 0 0
24.0 -103.18439545114312 -100.14507575154943 255 0 0
24.0 -103.1921489181269 -100.4146645505365 255 0 0
24.0 -103.19990367439505 -100.6842981780651 255 0 0
24.0 -103.55811272355626 -97.28377140982903 255 0 0
24.0 -103.58142484534015 -98.09038870641969 255 0 0
24.0 -103.58919813231243 -98.35935039859577 255 0 0
24.0 -103.5969727096755 -98.62835673928319 255 0 0
24.0 -103.60474857775073 -98.89740773960064 255 0 0
24.0 -103.61252573685954 -99.16650341067042 255 0 0
24.0 -103.62030418732346 -99.43564376361847 255 0 0
24.0 -103.6280839294642 -99.7048288095746 255 0 0
24.0 -103.6358649636035 -99.97405855967209 255 0 0
24.0 -103.65921582123204 -100.7820161462026 255 0 0
24.0 -104.01608935906461 -97.38478021432995 255 0 0
24.0 -104.02388874830851 -97.65333995414564 255 0 0
24.0 -104.03168943062276 -97.92194421881143 255 0 0
24.0 -104.03949140632895 -98.19059301940105 255 0 0
24.0 -104.04729467574877 -98.45928636699175 255 0 0
24.0 -104.05509923920408 -98.7280242726646 255 0 0
24.0 -104.06290509701677 -98.99680674750427 255 0 0
24.0 -104.07071224950884 -99.26563380259907 255 0 0
24.0 -104.07852069700246 -99.53450544904112 255 0 0
24.0 -104.08633043981982 -99.80342169792608 255 0 0
24.0 -104.09414147828329 -100.0723825603534 255 0 0
24.0 -104.10195381271535 -100.34138804742612 255 0 0
24.0 -104.10976744343851 -100.61043817025106 255 0 0
24.0 -104.48878486929554 -98.0222103415448 255 0 0
24.0 -104.49661668425864 -98.29059142208396 255 0 0
24.0 -104.5044497965489 -98.55901695950318 255 0 0
24.0 -104.5201199144004 -99.09600144917424 255 0 0
24.0 -104.52795692060674 -99.36456042353154 255 0 0
24.0 -104.53579522543035 -99.63316389897973 255 0 0
24.0 -104.54363482919403 -99.90181188658075 255 0 0
24.0 -104.55147573222074 -100.17050439740005 255 0 0
24.0 -104.55931793483347 -100.43924144250693 255 0 0
24.0 -104.97639593030338 -99.19499247386517 255 0 0
24.0 -104.98426265122518 -99.46328390112576 255 0 0
24.0 -104.99213067434958 -99.73161973949468 255 0 0
24.0 -104.99999999999996 -100.00000000000001 255 0 0
24.0 -102.13605923482227 98.4591626575138 255 0 0
24.0 -102.52755888713644 99.35071712482285 255 0 0
24.0 -102.53469317817128 99.1162666648811 255 0 0
24.0 -102.55610264823034 98.41269849280573 255 0 0
24.0 -102.92516483115737 100.00581581462845 255 0 0
24.0 -102.93232070891128 99.77171171226898 255 0 0
24.0 -102.93947768792246 99.53757158234521 255 0 0
24.0 -102.94663576844515 99.30339541653974 255 0 0
24.0 -102.95379495073365 99.06918320653271 255 0 0
24.0 -102.9609552350424 98.83493494400163 255 0 0
24.0 -102.96811662162584 98.60065062062142 255 0 0
24.0 -102.97527911073853 98.3663302280645 255 0 0
24.0 -103.31459207039887 100.89298564349195 255 0 0
24.0 -103.32176830049434 100.65926281923687 255 0 0
24.0 -103.32894563350204 100.42550407420576 255 0 0
24.0 -103.33612406967619 100.19170940011695 255 0 0
24.0 -103.34330360927117 99.95787878868633 255 0 0
24.0 -103.35048425254145 99.72401223162717 255 0 0
24.0 -103.3576659997415 99.49010972065022 255 0 0
24.0 -103.36484885112591 99.25617124746367 255 0 0
24.0 -103.37203280694938 99.02219680377318 255 0 0
24.0 -103.37921786746665 98.78818638128186 255 0 0
24.0 -103.38640403293252 98.55413997169022 255 0 0
24.0 -103.39359130360194 98.32005756669626 255 0 0
24.0 -103.72457173923172 101.07764999361754 255 0 0
24.0 -103.73177150186592 100.84419977896601 255 0 0
24.0 -103.73897236980541 100.61071372511134 255 0 0
24.0 -103.74617434330477 100.37719182379988 255 0 0
24.0 -103.75337742261856 100.14363406677535 255 0 0
24.0 -103.76058160800149 99.91004044577909 255 0 0
24.0 -103.76778689970841 99.67641095254979 255 0 0
24.0 -103.77499329799411 99.44274557882365 255 0 0
24.0 -103.78220080311357 99.20904431633429 255 0 0
24.0 -103.78940941532178 98.97530715681285 255 0 0
24.0 -103.7966191348739 98.74153409198789 255 0 0
24.0 -103.803829962025 98.50772511358544 255 0 0
24.0 -103.81104189703044 98.27388021332898 255 0 0
24.0 -104.14086899360744 101.02872820728659 255 0 0
24.0 -104.14809327504005 100.79551421085488 255 0 0
24.0 -104.15531866440193 100.56226444828968 255 0 0
24.0 -104.162545161948 100.32897891136273 255 0 0
24.0 -104.16977276793318 100.095657591843 255 0 0
24.0 -104.17700148261254 99.86230048149716 255 0 0
24.0 -104.18423130624122 99.62890757208923 255 0 0
24.0 -104.1914622390744 99.39547885538073 255 0 0
24.0 -104.19869428136737 99.16201432313066 255 0 0
24.0 -104.20592743337548 98.92851396709551 255 0 0
24.0 -104.2131616953542 98.6949777790292 255 0 0
24.0 -104.54906377351823 101.21284945639269 255 0 0
24.0 -104.55631134763682 100.97990688583175 255 0 0
24.0 -104.5635600320304 100.74692863018454 255 0 0
24.0 -104.57080982695409 100.51391468125036 255 0 0
24.0 -104.57806073266319 100.28086503082604 255 0 0
24.0 -104.5853127494129 100.04777967070585 255 0 0
24.0 -104.59256587745867 99.81465859268164 255 0 0
24.0 -104.59982011705594 99.58150178854265 255 0 0
24.0 -104.60707546846027 99.34830925007564 255 0 0
24.0 -104.97090143203003 100.93118572010118 255 0 0
24.0 -104.97817440410493 100.69844272924881 255 0 0
24.0 -104.98544848928783 100.46566411773364 255 0 0
24.0 -104.99272368783433 100.23284987737759 255 0 0
24.0 -104.99999999999999 100.00000000000004 255 0 0
25.0 94.99999999999999 99.99999999999996 255 0 0
25.0 94.08571470073377 99.58101757726611 255 0 0
25.0 94.09935201356637 99.23231197753398 255 0 0
25.0 94.11299269892747 98.88352014236904 255 0 0
25.0 94.12663675806826 98.53464203977808 255 0 0
25.0 94.1402841922406 98.18567763775206 255 0 0
25.0 94.1539350026969 97.83662690426615 255 0 0
25.0 93.16049126776994 99.51139237804827 255 0 0
25.0 92.21136028129655 100.13704287571241 255 0 0
25.0 92.23808645127565 99.44197928622656 255 0 0
25.0 91.29202812742572 100.06680109429095 255 0 0
25.0 91.30525613133449 99.71983191085306 255 0 0
25.0 91.31848739081799 99.37277733402372 255 0 0
25.0 91.33172190707829 99.0256373322745 255 0 0
25.0 91.34495968131795 98.6784118740614 255 0 0
25.0 90.37548745066425 99.99677259631027 255 0 0
25.0 90.38858276836103 99.65032164610801 255 0 0
25.0 90.40168130408257 99.3037855595411 255 0 0
25.0 90.41478305901525 98.95716430522374 255 0 0
25.0 90.42788803434595 98.61045785175467 255 0 0
25.0 90.44099623126219 98.26366616771726 255 0 0
25.0 90.45410765095205 97.91678922167941 255 0 0
25.0 90.46722229460421 97.56982698219356 255 0 0
25.0 89.4876554862812 99.23500300671404 255 0 0
25.0 89.50062522367581 98.88889895217419 255 0 0
25.0 89.51359814418369 98.54270995463446 255 0 0
25.0 89.52657424897676 98.19643598282018 255 0 0
25.0 89.53955353922763 97.85007700544129 255 0 0
25.0 94.9999999999999 -100.0 255 0 0
25.0 94.06181916615255 -100.93608114654675 255 0 0
25.0 94.0762437924667 -101.33122619817573 255 0 0
25.0 94.09067219280239 -101.72647463452289 255 0 0
25.0 93.04030226317597 -99.50333428889941 255 0 0
25.0 93.05456462003417 -99.89750004616518 255 0 0
25.0 93.06883070097537 -100.29176872512984 255 0 0
25.0 93.09737404094271 -101.0806150094429 255 0 0
25.0 93.11165130288877 -101.47519269548751 255 0 0
25.0 92.0651877406426 -99.25620130576729 255 0 0
25.0 92.0793000382277 -99.64969994010374 255 0 0
25.0 92.09341601477709 -100.04330115641963 255 0 0
25.0 92.10753567172956 -100.43700499483357 255 0 0
25.0 92.12165901052465 -100.83081149548522 255 0 0
25.0 92.1357860326027 -101.2247206985351 255 0 0
25.0 91.07924965186727 -98.61713153608478 255 0 0
25.0 91.09320914806807 -99.0098630925906 255 0 0
25.0 91.10717227707312 -99.40269685313307 255 0 0
25.0 91.12113904030068 -99.79563285761367 255 0 0
25.0 91.13510943916978 -100.18867114595452 255 0 0
25.0 91.16306114951233 -100.97505473400957 255 0 0
25.0 90.12435138219699 -98.76431582160096 255 0 0
25.0 90.13816622706263 -99.15648694615379 255 0 0
25.0 90.15198466178254 -99.54875997827062 255 0 0
25.0 90.16580668775616 -99.94113495767834 255 0 0
25.0 90.17963230638365 -100.33361192412451 255 0 0
25.0 90.19346151906595 -100.72619091737738 255 0 0
25.0 89.22697210380696 -100.47812538902602 255 0 0
25.0 -7.411252975180803 -4.657934345007494 255 0 0
25.0 -8.073514429546284 -4.8917466605933155 255 0 0
25.0 -8.072649043987147 -5.202573406302491 255 0 0
25.0 -8.071783474481183 -5.51346622151368 255 0 0
25.0 -8.07091772096974 -5.82442512729474 255 0 0
25.0 -8.734179090541424 -5.124995226087702 255 0 0
25.0 -8.733384871876982 -5.435471968573562 255 0 0
25.0 -8.732590484596555 -5.7460146265865 255 0 0
25.0 -8.73179592864644 -6.056623221119996 255 0 0
25.0 -8.73100120397291 -6.367297773176396 255 0 0
25.0 -8.73020631052222 -6.678038303766982 255 0 0
25.0 -9.393252726308566 -5.357682077941273 255 0 0
25.0 -10.05139384226409 -5.28009574745561 255 0 0
25.0 -10.050741077241556 -5.589809242807923 255 0 0
25.0 -10.050088173982292 -5.899588326509302 255 0 0
25.0 -10.048781952577896 -6.519343342315132 255 0 0
25.0 -10.707232484007593 -5.512012750727717 255 0 0
25.0 -10.706649856152422 -5.821378737603816 255 0 0
25.0 -10.706067105061772 -6.130810160530987 255 0 0
25.0 -10.705484230696538 -6.440307040272645 255 0 0
25.0 -10.704901233017598 -6.749869397600956 255 0 0
25.0 -10.704318111985817 -7.059497253296979 255 0 0
25.0 -10.70373486756204 -7.369190628150466 255 0 0
25.0 -10.7031514997071 -7.678949542960004 255 0 0
25.0 -10.70256800838181 -7.98877401853298 255 0 0
25.0 -11.361497573621323 -5.743373316072581 255 0 0
25.0 -11.360984748436818 -6.052392569565675 255 0 0
25.0 -11.360471814911415 -6.361477107341098 255 0 0
25.0 -11.359958773010774 -6.670626950089213 255 0 0
25.0 -11.359445622700548 -6.979842118509233 255 0 0
25.0 -11.358932363946368 -7.289122633309015 255 0 0
25.0 -11.358418996713855 -7.598468515205204 255 0 0
25.0 -11.357905520968615 -7.907879784923204 255 0 0
25.0 -11.35739193667624 -8.217356463197145 255 0 0
25.0 -11.35687824380231 -8.526898570770028 255 0 0
25.0 -12.013307963474773 -6.59159116197704 255 0 0
25.0 -12.010201200178663 -8.754585599771007 255 0 0
25.0 -12.009757001930199 -9.063845832731914 255 0 0
25.0 -12.009312709862536 -9.373171384606406 255 0 0
25.0 -12.664581183594908 -6.8211543099238465 255 0 0
25.0 -12.664206809684766 -7.1296123968310114 255 0 0
25.0 -12.663832356856048 -7.43813550716039 255 0 0
25.0 -12.663083214343047 -8.055376880345298 255 0 0
25.0 -12.662708524608817 -8.364095184352315 255 0 0
25.0 -12.662333755856121 -8.672878594084464 255 0 0
25.0 -12.661958908059962 -8.981727130139173 255 0 0
25.0 -12.661583981195328 -9.290640813122565 255 0 0
25.0 -12.6612089752372 -9.599619663649415 255 0 0
25.0 -13.313685947212086 -7.666460126119531 255 0 0
25.0 -13.313380283714341 -7.974703255708128 255 0 0
25.0 -13.31307455584578 -8.283011299369186 255 0 0
25.0 -13.312768763586064 -8.591384277610574 255 0 0
25.0 -13.312462906914849 -8.899822210948837 255 0 0
25.0 -13.312156985811782 -9.208325119909166 255 0 0
25.0 -13.311851000256498 -9.51689302502536 255 0 0
25.0 -13.311544950228631 -9.82552594683998 255 0 0
25.0 -13.311238835707801 -10.13422390590414 255 0 0
25.0 -13.310932656673616 -10.44298692277765 255 0 0
25.0 -13.310626413105682 -10.751815018028985 255 0 0
25.0 -13.310320104983598 -11.060708212235262 255 0 0
25.0 -13.9617500158952 -8.202138185049238 255 0 0
25.0 -13.96151284301189 -8.510101820960802 255 0 0
25.0 -13.961275620235883 -8.818130241417858 255 0 0
25.0 -13.96103834755143 -9.126223466865083 255 0 0
25.0 -13.960801024942779 -9.434381517755732 255 0 0
25.0 -13.95961366248479 -10.976144870328705 255 0 0
25.0 -13.959376039999794 -11.284692303881455 255 0 0
25.0 -13.959138367480158 -11.59330470629193 255 0 0
25.0 -14.60840363537625 -8.73665039213303 255 0 0
25.0 -14.608234655851458 -9.04433502024213 255 0 0
25.0 -14.606881540403972 -11.508141352753238 255 0 0
25.0 -14.606712240898743 -11.816408613947889 255 0 0
25.0 -14.606542905784035 -12.124740714289409 255 0 0
25.0 -15.25294338561288 -11.423199055201817 255 0 0
25.0 -15.252842154977861 -11.731057273691453 255 0 0
25.0 -15.252740903078214 -12.038980161235772 255 0 0
25.0 -15.252639629907243 -12.346967738213564 255 0 0
25.0 -15.252538335458244 -12.655020025012288 255 0 0
25.0 -15.252437019724507 -12.963137042027865 255 0 0
25.0 -15.252335682699323 -13.271318809664825 255 0 0
25.0 -15.252234324375985 -13.579565348336272 255 0 0
25.0 -15.897330440880546 -11.338476954070567 255 0 0
25.0 -15.897296926984207 -11.645927213425177 255 0 0
25.0 -15.897263406057025 -11.953441972410628 255 0 0
25.0 -15.89722987809679 -12.26102125132597 255 0 0
25.0 -15.897196343101287 -12.56866507047887 255 0 0
25.0 -15.897162801068301 -12.87637345018542 255 0 0
25.0 -15.897129251995619 -13.184146410770273 255 0 0
25.0 -15.897095695881022 -13.491983972566612 255 0 0
25.0 -15.897062132722294 -13.799886155916125 255 0 0
25.0 -15.897028562517216 -14.107852981169144 255 0 0
25.0 -16.539981525878588 -10.640080347038795 255 0 0
25.0 -16.540015364459503 -10.94699512541209 255 0 0
25.0 -16.540049210128693 -11.253974194243128 255 0 0
25.0 -16.5400830628884 -11.561017573734729 255 0 0
25.0 -16.540116922740832 -11.868125284098175 255 0 0
25.0 -16.540150789688234 -12.17529734555319 255 0 0
25.0 -16.54018466373283 -12.482533778328072 255 0 0
25.0 -16.540218544876854 -12.789834602659495 255 0 0
25.0 -16.540252433122536 -13.097199838792651 255 0 0
25.0 -16.54028632847211 -13.40462950698122 255 0 0
25.0 -16.540320230927808 -13.712123627487342 255 0 0
25.0 -16.540354140491868 -14.019682220581752 255 0 0
25.0 -16.540388057166524 -14.327305306543588 255 0 0
25.0 -17.181106163645925 -11.169689925025123 255 0 0
25.0 -17.181207035013806 -11.47632749965044 255 0 0
25.0 -17.18130792748864 -11.783029237049986 255 0 0
25.0 -17.181408841077065 -12.089795157364566 255 0 0
25.0 -17.1815097757857 -12.396625280743521 255 0 0
25.0 -17.181610731621177 -12.70351962734452 255 0 0
25.0 -17.181711708590136 -13.010478217333711 255 0 0
25.0 -17.18181270669921 -13.317501070885683 255 0 0
25.0 -17.181913725955035 -13.62458820818344 255 0 0
25.0 -17.182014766364254 -13.931739649418537 255 0 0
25.0 -17.182520285943983 -15.468462121948031 255 0 0
25.0 -17.182621453413223 -15.775999811302183 255 0 0
25.0 -17.821513527408364 -12.923980674524234 255 0 0
25.0 -17.821681281598124 -13.23059778813729 255 0 0
25.0 -17.82184907086648 -13.537279017584751 255 0 0
25.0 -17.822016895224444 -13.84402438297941 255 0 0
25.0 -17.822184754683025 -14.150833904442365 255 0 0
25.0 -17.822352649253233 -14.457707602103174 255 0 0
25.0 -17.82252057894609 -14.764645496099812 255 0 0
25.0 -17.82268854377261 -15.071647606578646 255 0 0
25.0 -17.82285654374383 -15.378713953694577 255 0 0
25.0 -17.823024578870772 -15.685844557610839 255 0 0
25.0 -17.82319264916448 -15.99303943849914 255 0 0
25.0 -17.823360754635992 -16.300298616539635 255 0 0
25.0 -18.45943018858683 -12.531557827427942 255 0 0
25.0 -18.459664305303182 -12.8377063429948 255 0 0
25.0 -18.459898470906733 -13.14391878711566 255 0 0
25.0 -18.460132685412795 -13.450195179816491 255 0 0
25.0 -18.460366948836686 -13.756535541131724 255 0 0
25.0 -18.460601261193744 -14.06293989110406 255 0 0
25.0 -18.460835622499296 -14.369408249784609 255 0 0
25.0 -18.461070032768674 -14.675940637232854 255 0 0
25.0 -18.461304492017238 -14.982537073516635 255 0 0
25.0 -18.46153900026033 -15.289197578712274 255 0 0
25.0 -18.46177355751331 -15.595922172904388 255 0 0
25.0 -18.462008163791555 -15.902710876186019 255 0 0
25.0 -18.462242819110422 -16.20956370865861 255 0 0
25.0 -19.097672223062943 -14.28133658347747 255 0 0
25.0 -19.097972770704096 -14.587464533867138 255 0 0
25.0 -19.098273381062615 -14.893656366101236 255 0 0
25.0 -19.098574054158128 -15.199912100177917 255 0 0
25.0 -19.098874790010278 -15.506231756103588 255 0 0
25.0 -19.099175588638722 -15.812615353893035 255 0 0
25.0 -19.733601574616564 -14.805004596359916 255 0 0
25.0 -19.733968071135237 -15.110856625888772 255 0 0
25.0 -19.734334644050712 -15.416772410772083 255 0 0
25.0 -19.73470129338687 -15.722751970946792 255 0 0
25.0 -19.73543482141686 -16.334902496959693 255 0 0
25.0 -19.736168655416527 -16.9473083635894 255 0 0
25.0 -19.73653568721482 -17.253607099566306 255 0 0
25.0 -19.736902795577354 -17.559969730630975 255 0 0
25.0 -19.737269980528083 -17.866396276778605 255 0 0
25.0 -19.737637242090976 -18.172886758012833 255 0 0
25.0 -19.738004580290017 -18.479441194345537 255 0 0
25.0 -19.738371995149194 -18.786059605796993 255 0 0
25.0 -19.73873948669251 -19.09274201239582 255 0 0
25.0 -20.368591614935006 -15.633119831309306 255 0 0
25.0 -20.370321156608284 -16.85606266736909 255 0 0
25.0 -20.37075376720596 -17.16195759861865 255 0 0
25.0 -20.371186467931686 -17.467916258567975 255 0 0
25.0 -20.37161925881362 -17.773938667134512 255 0 0
25.0 -20.37205213987994 -18.080024844244107 255 0 0
25.0 -20.372485111158845 -18.38617480983081 255 0 0
25.0 -20.37291817267853 -18.69238858383701 255 0 0
25.0 -21.00284322707836 -16.76505156737929 255 0 0
25.0 -21.003341078250166 -17.07054375661052 255 0 0
25.0 -21.003839033008568 -17.376099508802508 255 0 0
25.0 -101.73847507104627 -98.47623994000962 255 0 0
25.0 -102.19608715747471 -98.30639957676313 255 0 0
25.0 -102.20383970213994 -98.5785544461529 255 0 0
25.0 -102.66046557316295 -98.40877395369934 255 0 0
25.0 -102.66825201452214 -98.68065957665362 255 0 0
25.0 -102.67603985874123 -98.95259418442944 255 0 0
25.0 -102.68382910619938 -99.22457779026617 255 0 0
25.0 -102.6916197572759 -99.49661040740791 255 0 0
25.0 -103.13953651927251 -99.05422176804424 255 0 0
25.0 -103.14735951799216 -99.32593646211885 255 0 0
25.0 -103.1551839249708 -99.59770006897982 255 0 0
25.0 -103.16300974058876 -99.8695126018359 255 0 0
25.0 -103.17083696522644 -100.1413740739006 255 0 0
25.0 -103.17866559926443 -100.41328449839223 255 0 0
25.0 -103.57067427291226 -98.07034441852488 255 0 0
25.0 -103.58637758083117 -98.61289555298234 255 0 0
25.0 -103.59423135218007 -98.88424427626585 255 0 0
25.0 -103.60208653562957 -99.15564178779039 255 0 0
25.0 -103.6099431315605 -99.42708810071525 255 0 0
25.0 -103.61780114035393 -99.69858322820448 255 0 0
25.0 -103.62566056239096 -99.97012718342683 255 0 0
25.0 -103.63352139805289 -100.24171997955582 255 0 0
25.0 -103.64138364772117 -100.51336162976972 255 0 0
25.0 -103.64924731177732 -100.78505214725149 255 0 0
25.0 -103.65711239060306 -101.05679154518886 255 0 0
25.0 -104.01638231068044 -97.63080642875599 255 0 0
25.0 -104.0242638539444 -97.90169286519321 255 0 0
25.0 -104.0321468123483 -98.17262793959357 255 0 0
25.0 -104.0400311862733 -98.44361166505779 255 0 0
25.0 -104.04791697610068 -98.71464405469123 255 0 0
25.0 -104.0558041822119 -98.98572512160399 255 0 0
25.0 -104.06369280498855 -99.25685487891086 255 0 0
25.0 -104.07158284481235 -99.52803333973135 255 0 0
25.0 -104.07947430206512 -99.79926051718967 255 0 0
25.0 -104.0873671771289 -100.0705364244148 255 0 0
25.0 -104.09526147038578 -100.34186107454038 255 0 0
25.0 -104.10315718221804 -100.61323448070478 255 0 0
25.0 -104.11105431300807 -100.88465665605112 255 0 0
25.0 -104.50059674726474 -98.54541984866881 255 0 0
25.0 -104.50851581480966 -98.81618520634122 255 0 0
25.0 -104.51643630316578 -99.08699914377962 255 0 0
25.0 -104.52435821271548 -99.35786167405918 255 0 0
25.0 -104.53228154384134 -99.62877281025978 255 0 0
25.0 -104.540206296926 -99.89973256546604 255 0 0
25.0 -104.98408563242613 -99.45866280331238 255 0 0
25.0 -104.99204210298691 -99.72930714082291 255 0 0
25.0 -104.9999999999999 -99.99999999999996 255 0 0
25.0 -102.12153391269288 98.6902373697458 255 0 0
25.0 -102.52114710137232 99.3470444837572 255 0 0
25.0 -102.52831315846721 99.11283755684633 255 0 0
25.0 -102.53548040569167 98.87859173314976 255 0 0
25.0 -102.54264884334219 98.6443070029768 255 0 0
25.0 -102.91974240081743 100.00217858769449 255 0 0
25.0 -102.92693238470896 99.768324297968 255 0 0
25.0 -102.93412356118274 99.53443121949363 255 0 0
25.0 -102.94131593053552 99.30049934261994 255 0 0
25.0 -102.9485094930641 99.06652865769223 255 0 0
25.0 -102.95570424906542 98.83251915505265 255 0 0
25.0 -102.96290019883655 98.59847082504011 255 0 0
25.0 -103.34618592976177 99.72140318928413 255 0 0
25.0 -103.35340447739621 99.48774571923252 255 0 0
25.0 -103.36062422122379 99.2540495295556 255 0 0
25.0 -103.36784516154184 99.02031461062812 255 0 0
25.0 -103.37506729864783 98.78654095282171 255 0 0
25.0 -103.38229063283934 98.55272854650477 255 0 0
25.0 -103.7066586423084 101.54056682123138 255 0 0
25.0 -103.71389484900095 101.30745326919387 255 0 0
25.0 -103.72113225279358 101.07430115271794 255 0 0
25.0 -103.72837085398336 100.84111046223313 255 0 0
25.0 -103.73561065286745 100.60788118816576 255 0 0
25.0 -103.74285164974314 100.37461332093906 255 0 0
25.0 -103.75009384490784 100.14130685097301 255 0 0
25.0 -103.75733723865898 99.90796176868447 255 0 0
25.0 -103.76458183129414 99.67457806448712 255 0 0
25.0 -103.77182762311101 99.44115572879143 255 0 0
25.0 -103.77907461440736 99.20769475200477 255 0 0
25.0 -103.78632280548106 98.97419512453124 255 0 0
25.0 -103.79357219663007 98.74065683677182 255 0 0
25.0 -103.80082278815247 98.50707987912433 255 0 0
25.0 -104.12398270404866 101.49196290749524 255 0 0
25.0 -104.13124600250032 101.25908339186117 255 0 0
25.0 -104.13851050130675 101.02616538985097 255 0 0
25.0 -104.14577620076555 100.79320889192331 255 0 0
25.0 -104.15304310117436 100.56021388853365 255 0 0
25.0 -104.160311202831 100.32718037013437 255 0 0
25.0 -104.16758050603335 100.0941083271746 255 0 0
25.0 -104.17485101107937 99.86099775010038 255 0 0
25.0 -104.18212271826714 99.62784862935462 255 0 0
25.0 -104.18939562789484 99.39466095537695 255 0 0
25.0 -104.19666974026076 99.16143471860397 255 0 0
25.0 -104.20394505566325 98.92816990946903 255 0 0
25.0 -104.21122157440081 98.69486651840235 255 0 0
25.0 -104.55503710752218 100.97812784593012 255 0 0
25.0 -104.56232977964608 100.74540507076873 255 0 0
25.0 -104.56962365594832 100.51264386802889 255 0 0
25.0 -104.57691873672721 100.279844228192 255 0 0
25.0 -104.58421502228111 100.04700614173628 255 0 0
25.0 -104.64262871445075 98.18291622816167 255 0 0
25.0 -104.97071467539227 100.93018822064444 255 0 0
25.0 -104.97803419517616 100.69769869987022 255 0 0
25.0 -104.98535492233954 100.46517082916503 255 0 0
25.0 -104.99267685718117 100.23260459903925 255 0 0
25.0 -104.99999999999993 99.99999999999996 255 0 0
26.0 95.00000000000003 99.99999999999994 255 0 0
26.0 95.01380697060021 99.6508281239276 255 0 0
26.0 95.02761736180918 99.3015697422475 255 0 0
26.0 95.04143117489822 98.95222482280867 255 0 0
26.0 95.0552484111393 98.60279333344421 255 0 0
26.0 95.06906907180499 98.25327524197124 255 0 0
26.0 95.08289315816852 97.90367051619094 255 0 0
26.0 94.08325082602276 99.58098957188858 255 0 0
26.0 94.09692484783943 99.2322606287117 255 0 0
26.0 94.11060225252673 98.88344541209473 255 0 0
26.0 94.12428304134018 98.53454389001843 255 0 0
26.0 94.13796721553588 98.18555603044769 255 0 0
26.0 93.15555719378143 99.5113658523644 255 0 0
26.0 93.16909561924345 99.16316474539755 255 0 0
26.0 92.2039156045094 100.13704858873673 255 0 0
26.0 92.21731259356947 99.78954512467554 255 0 0
26.0 92.24411648292403 99.09428110980885 255 0 0
26.0 91.28217553151225 100.06680304587805 255 0 0
26.0 91.29543853089216 99.7198237141868 255 0 0
26.0 91.30870479555682 99.37275895790302 255 0 0
26.0 91.32197432671221 99.02560874547615 255 0 0
26.0 91.3352471255649 98.67837304534008 255 0 0
26.0 91.34852319332214 98.3310518259132 255 0 0
26.0 91.36180253119163 97.9836450555983 255 0 0
26.0 90.38951989579567 99.30377382161701 255 0 0
26.0 90.40265611874804 98.95714668191066 255 0 0
26.0 90.41579557161602 98.61043431402143 255 0 0
26.0 90.42893825559102 98.2636366865118 255 0 0
26.0 90.442084171865 97.91675376792877 255 0 0
26.0 95.00000000000009 -99.99999999999997 255 0 0
26.0 95.07305552367403 -101.97861105058001 255 0 0
26.0 94.01600183812876 -99.74863199464767 255 0 0
26.0 94.03045279946768 -100.1434696129682 255 0 0
26.0 94.08829446504977 -101.72385343259809 255 0 0
26.0 93.03520420940127 -99.49808158394504 255 0 0
26.0 93.04950359763936 -99.89224428201285 255 0 0
26.0 93.0638067206773 -100.28650992985538 255 0 0
26.0 93.07811357997855 -100.6808785678115 255 0 0
26.0 93.10673851322836 -101.4699249755251 255 0 0
26.0 92.05759152418389 -99.24834478543022 255 0 0
26.0 92.07174024679021 -99.64183486126483 255 0 0
26.0 92.08589265884297 -100.03542754428199 255 0 0
26.0 92.10004876178546 -100.42912287462107 255 0 0
26.0 92.11420855706176 -100.82292089244221 255 0 0
26.0 92.1283720461166 -101.21682163792663 255 0 0
26.0 91.08314829392697 -98.9994176424639 255 0 0
26.0 91.09714725194108 -99.39223738239295 255 0 0
26.0 91.11114985442985 -99.78515938861862 255 0 0
26.0 91.12515610281666 -100.17818370108205 255 0 0
26.0 91.13916599852568 -100.571310359745 255 0 0
26.0 91.15317954298173 -100.9645394045902 255 0 0
26.0 90.12570921843398 -99.14344790275878 255 0 0
26.0 90.1395629064016 -99.53570150860274 255 0 0
26.0 90.15342019565392 -99.9280570812965 255 0 0
26.0 90.16728108759543 -100.32051466060476 255 0 0
26.0 90.18114558363122 -100.71307428631306 255 0 0
26.0 -7.541155717176548 -4.827749339498272 255 0 0
26.0 -8.202523134932424 -5.370405675472057 255 0 0
26.0 -8.20164477135128 -5.680931178809802 255 0 0
26.0 -8.20076622122102 -5.991522632351438 255 0 0
26.0 -8.863230988083828 -5.601685743869301 255 0 0
26.0 -8.862423760410504 -5.911858498690806 255 0 0
26.0 -8.86161636150441 -6.22209704875432 255 0 0
26.0 -8.860808791311056 -6.532401414997174 255 0 0
26.0 -9.523071770594074 -5.522649378722885 255 0 0
26.0 -9.522335492329962 -5.832404561718736 255 0 0
26.0 -9.521599058089258 -6.142225364685497 255 0 0
26.0 -9.52086246782239 -6.4521118084771665 255 0 0
26.0 -9.520125721479769 -6.762063913956717 255 0 0
26.0 -9.519388819011784 -7.072081701995825 255 0 0
26.0 -10.181174017137376 -5.443821257090883 255 0 0
26.0 -10.1805083174389 -5.753159990614009 255 0 0
26.0 -10.1778441098071 -6.991169586453586 255 0 0
26.0 -10.177177705466038 -7.300835754772093 255 0 0
26.0 -10.836949099878494 -5.674123958928157 255 0 0
26.0 -10.83635348427148 -5.983112632337346 255 0 0
26.0 -10.835161875440022 -6.601285876488385 255 0 0
26.0 -10.834565882135768 -6.910470488633931 255 0 0
26.0 -10.833969762852593 -7.2197204551099246 255 0 0
26.0 -10.833373517550552 -7.5290357966400325 255 0 0
26.0 -10.832777146189681 -7.838416533956787 255 0 0
26.0 -11.491138910435332 -5.903869926487539 255 0 0
26.0 -11.490613042209148 -6.212509327363854 255 0 0
26.0 -11.490087062996402 -6.521213867801172 255 0 0
26.0 -11.489560972761957 -6.829983568423542 255 0 0
26.0 -11.486928855033293 -8.374810196765663 255 0 0
26.0 -11.486402097929876 -8.683971292092998 255 0 0
26.0 -12.143292734497958 -6.4413520893923195 255 0 0
26.0 -12.142836182546192 -6.749707990121032 255 0 0
26.0 -12.139637622153572 -8.910020671048436 255 0 0
26.0 -12.139180299341692 -9.21889721190009 255 0 0
26.0 -12.138722880035047 -9.527838925468355 255 0 0
26.0 -12.794010818810824 -6.977650966272243 255 0 0
26.0 -12.793623279355451 -7.285723866474174 255 0 0
26.0 -12.791296327876378 -9.135524398658207 255 0 0
26.0 -12.790908216597831 -9.444051867345673 255 0 0
26.0 -12.79052002352696 -9.752644356509315 255 0 0
26.0 -13.443297899408549 -7.512770460399845 255 0 0
26.0 -13.442979070171795 -7.82056085845809 255 0 0
26.0 -13.441703082331577 -9.052370115528106 255 0 0
26.0 -13.441383917542332 -9.36048444822879 255 0 0
26.0 -13.441064685579024 -9.668663629222474 255 0 0
26.0 -13.440745386420442 -9.97690767898401 255 0 0
26.0 -14.091158691518395 -8.04671445789914 255 0 0
26.0 -14.09090827171395 -8.354222850962602 255 0 0
26.0 -14.090657799289668 -8.661795859688095 255 0 0
26.0 -14.090407274228964 -8.969433504444016 255 0 0
26.0 -14.09015669651524 -9.277135805607202 255 0 0
26.0 -14.089906066131899 -9.584902783563173 255 0 0
26.0 -14.08965538306233 -9.892734458705903 255 0 0
26.0 -14.089153858798047 -10.508591982170767 255 0 0
26.0 -14.088903017570082 -10.816617871323832 255 0 0
26.0 -14.088652123589391 -11.124708539325646 255 0 0
26.0 -14.088401176839326 -11.432864006613096 255 0 0
26.0 -14.73759788967468 -8.579486827839437 255 0 0
26.0 -14.73741557999899 -8.886713711826557 255 0 0
26.0 -14.737233232057243 -9.194005081480498 255 0 0
26.0 -14.737050845837393 -9.501360957106376 255 0 0
26.0 -14.736868421327385 -9.808781359017694 255 0 0
26.0 -14.736685958515157 -10.11626630753659 255 0 0
26.0 -14.736503457388645 -10.423815822993737 255 0 0
26.0 -14.736320917935785 -10.731429925728243 255 0 0
26.0 -14.736138340144498 -11.0391086360879 255 0 0
26.0 -14.735955724002704 -11.346851974428906 255 0 0
26.0 -14.735773069498318 -11.65465996111615 255 0 0
26.0 -14.735590376619257 -11.962532616522948 255 0 0
26.0 -14.735407645353419 -12.270469961031301 255 0 0
26.0 -14.735224875688706 -12.578472015031654 255 0 0
26.0 -15.382620167831774 -9.111091422329038 255 0 0
26.0 -15.382505670455375 -9.418037291931379 255 0 0
26.0 -15.38239114907279 -9.725047517594044 255 0 0
26.0 -15.382276603676466 -10.032122119559093 255 0 0
26.0 -15.38216203425885 -10.339261118077065 255 0 0
26.0 -15.382047440812386 -10.646464533406904 255 0 0
26.0 -15.381932823329514 -10.953732385816181 255 0 0
26.0 -15.381818181802666 -11.261064695580838 255 0 0
26.0 -15.38170351622428 -11.568461482985457 255 0 0
26.0 -15.381588826586787 -11.875922768322999 255 0 0
26.0 -15.381474112882609 -12.18344857189508 255 0 0
26.0 -15.381359375104175 -12.491038914011694 255 0 0
26.0 -15.381244613243906 -12.79869381499147 255 0 0
26.0 -15.381129827294213 -13.106413295161563 255 0 0
26.0 -16.026136206755236 -10.25492700082062 255 0 0
26.0 -16.02608920563184 -10.561720823367782 255 0 0
26.0 -16.026042194662644 -10.868578913122992 255 0 0
26.0 -16.02599517384455 -11.175501290282345 255 0 0
26.0 -16.025948143174467 -11.482487975050546 255 0 0
26.0 -16.025901102649296 -11.789538987640626 255 0 0
26.0 -16.02585405226594 -12.096654348274225 255 0 0
26.0 -16.0258069920213 -12.403834077181326 255 0 0
26.0 -16.025759921912275 -12.71107819460049 255 0 0
26.0 -16.025712841935764 -13.018386720778762 255 0 0
26.0 -16.025665752088656 -13.325759675971588 255 0 0
26.0 -16.02561865236786 -13.63319708044303 255 0 0
26.0 -16.025571542770265 -13.940698954465516 255 0 0
26.0 -16.668473041151245 -10.783647347183337 255 0 0
26.0 -16.66849328920835 -11.090160883332798 255 0 0
26.0 -16.668513541502385 -11.396738557731595 255 0 0
26.0 -16.668533798034673 -11.70338039051325 255 0 0
26.0 -16.66855405880655 -12.01008640181985 255 0 0
26.0 -16.66857432381934 -12.31685661180178 255 0 0
26.0 -16.66859459307438 -12.62369104061796 255 0 0
26.0 -16.668614866573 -12.93058970843575 255 0 0
26.0 -16.668635144316532 -13.237552635430859 255 0 0
26.0 -16.668655426306316 -13.544579841787577 255 0 0
26.0 -16.668675712543678 -13.851671347698517 255 0 0
26.0 -16.668696003029957 -14.158827173364879 255 0 0
26.0 -16.66871629776648 -14.466047338996194 255 0 0
26.0 -16.6687365967546 -14.7733318648106 255 0 0
26.0 -16.668756899995632 -15.080680771034569 255 0 0
26.0 -16.668777207490926 -15.388094077903148 255 0 0
26.0 -17.309493471641282 -11.617446097580869 255 0 0
26.0 -17.30958069346365 -11.923743848808963 255 0 0
26.0 -17.309667933519233 -12.230105629783537 255 0 0
26.0 -17.309755191813743 -12.536531460584287 255 0 0
26.0 -17.309842468352898 -12.843021361299305 255 0 0
26.0 -17.309929763142424 -13.149575352024987 255 0 0
26.0 -17.31001707618805 -13.456193452866264 255 0 0
26.0 -17.310104407495498 -13.762875683936349 255 0 0
26.0 -17.3101917570705 -14.069622065356995 255 0 0
26.0 -17.31027912491878 -14.376432617258248 255 0 0
26.0 -17.31036651104609 -14.683307359778704 255 0 0
26.0 -17.31045391545815 -14.99024631306526 255 0 0
26.0 -17.31054133816071 -15.29724949727334 255 0 0
26.0 -17.31062877915951 -15.604316932566809 255 0 0
26.0 -17.31071623846029 -15.911448639117864 255 0 0
26.0 -17.310803716068804 -16.21864463710729 255 0 0
26.0 -17.94909435000725 -12.143580247656109 255 0 0
26.0 -17.949248249064926 -12.449598566682123 255 0 0
26.0 -17.94940218025917 -12.755680787201701 255 0 0
26.0 -17.949556143600056 -13.061826929232335 255 0 0
26.0 -17.949710139097647 -13.36803701280002 255 0 0
26.0 -17.949864166762026 -13.674311057938977 255 0 0
26.0 -17.95001822660327 -13.980649084691937 255 0 0
26.0 -17.95017231863146 -14.287051113109865 255 0 0
26.0 -17.950326442856692 -14.593517163252244 255 0 0
26.0 -17.95048059928905 -14.900047255186806 255 0 0
26.0 -17.950634787938633 -15.206641408989771 255 0 0
26.0 -17.950789008815544 -15.513299644745755 255 0 0
26.0 -17.950943261929886 -15.82002198254766 255 0 0
26.0 -17.951097547291766 -16.126808442496934 255 0 0
26.0 -17.9512518649113 -16.433659044703287 255 0 0
26.0 -17.951406214798606 -16.740573809284985 255 0 0
26.0 -18.587520786767143 -12.97430647518956 255 0 0
26.0 -18.587741118149502 -13.28010962539119 255 0 0
26.0 -18.587961495495172 -13.585976569170937 255 0 0
26.0 -18.58818191881855 -13.89190732649291 255 0 0
26.0 -18.588402388134018 -14.19790191732942 255 0 0
26.0 -18.58862290345597 -14.503960361661239 255 0 0
26.0 -18.588843464798817 -14.810082679477357 255 0 0
26.0 -18.58906407217696 -15.116268890775201 255 0 0
26.0 -18.589284725604816 -15.42251901556055 255 0 0
26.0 -18.589505425096803 -15.72883307384743 255 0 0
26.0 -18.589726170667348 -16.03521108565836 255 0 0
26.0 -18.589946962330885 -16.341653071024094 255 0 0
26.0 -18.59016780010185 -16.648159049983878 255 0 0
26.0 -18.59038868399469 -16.9547290425852 255 0 0
26.0 -18.59060961402385 -17.261363068884048 255 0 0
26.0 -19.226122413073885 -15.331974123187573 255 0 0
26.0 -19.226409213536947 -15.637880986854269 255 0 0
26.0 -19.22669607380164 -15.943851636085885 255 0 0
26.0 -19.226982993886672 -16.249886090834618 255 0 0
26.0 -19.227269973810756 -16.55598437106112 255 0 0
26.0 -19.22755701359261 -16.86214649673423 255 0 0
26.0 -19.227844113250967 -17.168372487831263 255 0 0
26.0 -19.228131272804568 -17.47466236433772 255 0 0
26.0 -19.22841849227215 -17.781016146247563 255 0 0
26.0 -19.228705771672473 -18.087433853563073 255 0 0
26.0 -19.228993111024295 -18.393915506294803 255 0 0
26.0 -19.229280510346385 -18.700461124461782 255 0 0
26.0 -19.862366415544653 -16.158357174133304 255 0 0
26.0 -19.862719193909147 -16.46404883818842 255 0 0
26.0 -19.86307204576007 -16.76980418015715 255 0 0
26.0 -19.863424971120395 -17.075623219938535 255 0 0
26.0 -19.863777970013093 -17.38150597743977 255 0 0
26.0 -19.86413104246114 -17.68745247257643 255 0 0
26.0 -19.864484188487538 -17.99346272527242 255 0 0
26.0 -19.864837408115285 -18.29953675545983 255 0 0
26.0 -19.865190701367396 -18.605674583079196 255 0 0
26.0 -19.86554406826689 -18.911876228079237 255 0 0
26.0 -20.495685501703523 -15.761842760822022 255 0 0
26.0 -20.496103649818068 -16.067065395737547 255 0 0
26.0 -20.49652188491416 -16.372351521879366 255 0 0
26.0 -20.496940207018937 -16.677701159060277 255 0 0
26.0 -20.49735861615956 -16.98311432710144 255 0 0
26.0 -20.497777112363195 -17.288591045832145 255 0 0
26.0 -102.66667412055521 -98.4217459493381 255 0 0
26.0 -102.6744209306812 -98.69296155947596 255 0 0
26.0 -102.69766971859963 -99.50690098715121 255 0 0
26.0 -103.12112216990333 -98.25095521615927 255 0 0
26.0 -103.12890111624398 -98.52185218942707 255 0 0
26.0 -103.13668145947088 -98.79279780838885 255 0 0
26.0 -103.14446319996023 -99.063792086149 255 0 0
26.0 -103.15224633808855 -99.33483503581651 255 0 0
26.0 -103.16003087423235 -99.60592667050516 255 0 0
26.0 -103.16781680876834 -99.8770670033334 255 0 0
26.0 -103.17560414207338 -100.14825604742438 255 0 0
26.0 -103.54332534082694 -96.99871476888268 255 0 0
26.0 -103.55113066006885 -97.2690998445612 255 0 0
26.0 -103.55893737886487 -97.53953340237572 255 0 0
26.0 -103.56674549759148 -97.81001545536735 255 0 0
26.0 -103.5745550166253 -98.08054601658168 255 0 0
26.0 -103.582365936343 -98.35112509906911 255 0 0
26.0 -103.59017825712151 -98.62175271588465 255 0 0
26.0 -103.59799197933776 -98.89242888008808 255 0 0
26.0 -103.60580710336897 -99.16315360474375 255 0 0
26.0 -103.61362362959235 -99.4339269029208 255 0 0
26.0 -104.01129481062245 -97.3701384211802 255 0 0
26.0 -104.01913473246753 -97.64030354870437 255 0 0
26.0 -104.02697605875467 -97.91051707355588 255 0 0
26.0 -104.03481878986123 -98.18077900874076 255 0 0
26.0 -104.04266292616487 -98.45108936726965 255 0 0
26.0 -104.05050846804316 -98.72144816215788 255 0 0
26.0 -104.05835541587405 -98.99185540642543 255 0 0
26.0 -104.06620377003541 -99.26231111309696 255 0 0
26.0 -104.07405353090537 -99.53281529520177 255 0 0
26.0 -104.08190469886217 -99.80336796577387 255 0 0
26.0 -104.08975727428417 -100.07396913785193 255 0 0
26.0 -104.48626306052847 -98.01081264448572 255 0 0
26.0 -104.49413885117532 -98.28080648598605 255 0 0
26.0 -104.5020160514957 -98.55084865319742 255 0 0
26.0 -104.5098946618682 -98.82093915909556 255 0 0
26.0 -104.51777468267142 -99.09107801666092 255 0 0
26.0 -104.52565611428412 -99.36126523887853 255 0 0
26.0 -104.53353895708523 -99.6315008387381 255 0 0
26.0 -104.54142321145379 -99.90178482923399 255 0 0
26.0 -104.54930887776901 -100.17211722336518 255 0 0
26.0 -104.97625268138277 -99.19009733747612 255 0 0
26.0 -104.98416703849674 -99.46001660718629 255 0 0
26.0 -104.99208281124254 -99.72998415704264 255 0 0
26.0 -105.00000000000006 -100.0 255 0 0
26.0 -102.53483540313529 99.11513355711075 255 0 0
26.0 -102.54196545355603 98.88149417985898 255 0 0
26.0 -102.54909668552179 98.6478160854266 255 0 0
26.0 -102.95391896853305 99.06894980565396 255 0 0
26.0 -103.30035875570165 101.352400164466 255 0 0
