-17.0 -7.59313972006021 49.708380605341254
-17.0 -7.5810360163282695 49.42712045323552
-17.0 -7.56892914142841 49.145786611027034
-17.0 -7.556819094114198 48.864379049751825
-17.0 -7.54470587313855 48.582897740430724
-17.0 -7.53258947725373 48.30134265406937
-17.0 -7.520469905211337 48.01971376165822
-17.0 -7.508347155762334 47.7380110341725
-17.0 -7.496221227657014 47.456234442572224
-17.0 -7.4840921196450205 47.17438395780218
-17.0 -7.471959830475341 46.89245955079189
-17.0 -7.459824358896303 46.610461192455666
-17.0 -7.44768570365558 46.32838885369252
-17.0 -7.435543863500193 46.04624250538622
-17.0 -7.423398837176495 45.76402211840526
-17.0 -7.411250623430192 45.48172766360279
-17.0 -7.399099221006322 45.199359111816726
-17.0 -7.386944628649272 44.916916433869616
-17.0 -7.374786845102763 44.63439960056874
-17.0 -7.362625869109861 44.351808582706
-17.0 -7.192036292880006 40.38772856053478
-17.0 -7.179827278908959 40.10402125881882
-17.0 -7.143180956037603 39.25245131186822
-17.0 -7.130959083864791 38.96844521733119
-17.0 -7.118733993967657 38.684364350835665
-17.0 -7.1065056850753034 38.40020868284924
-17.0 -7.094274155916174 38.11597818382404
-17.0 -7.082039405218038 37.83167282419653
-17.0 -7.069801431707992 37.54729257438769
-17.0 -7.0330681615673365 36.693702187848544
-17.0 -7.020817284067233 36.40902208121181
-17.0 -7.008563177380648 36.124266936264405
-17.0 -6.996305840230651 35.83943672333365
-17.0 -6.984045271339639 35.554531412731116
-17.0 -6.971781469429329 35.26955097475281
-17.0 -6.9595144332207735 34.98449537967901
-17.0 -6.947244161434344 34.69936459777437
-17.0 -6.934970652789734 34.41415859928778
-17.0 -6.142674325732289 16.003150663514322
-17.0 -6.130187642349071 15.712991011110383
-17.0 -6.117697636092406 15.42275414334227
-17.0 -6.105204305635721 15.132440029383782
-17.0 -4.478130402003933 -22.67673505932362
-17.0 -4.46519686227034 -22.977278548597628
-17.0 -4.452259819692784 -23.27790343530562
-17.0 -4.4393192728480395 -23.578609752519938
-17.0 -4.426375220312105 -23.87939753333073
-17.0 -4.413427660660211 -24.180266810846174
-17.0 -4.400476592466817 -24.481217618192307
-17.0 -4.387522014305608 -24.7822499885132
-17.0 -4.374563924749493 -25.08336395497081
-17.0 -4.361602322370613 -25.384559550745163
-17.0 -4.348637205740332 -25.68583680903419
-17.0 -4.335668573429239 -25.987195763053904
-17.0 -4.3226964240071455 -26.288636446038257
-17.0 -4.30972075604309 -26.590158891239312
-17.0 -4.296741568105336 -26.891763131927092
-17.0 -4.2837588587613675 -27.19344920138975
-17.0 -4.270772626577891 -27.49521713293343
-17.0 -4.257782870120836 -27.79706695988243
-17.0 -4.244789587955352 -28.098998715579054
-17.0 -4.231792778645814 -28.401012433383787
-17.0 -4.218792440755812 -28.70310814667517
-17.0 -4.205788572848157 -29.005285888849922
-17.0 -4.192781173484884 -29.307545693322837
-17.0 -4.049466292376047 -32.63782922904083
-17.0 -4.036416403098941 -32.941076394068176
-17.0 -4.023362963601352 -33.244406057442774
-17.0 -8.41455863287173 51.3964274533587
-17.0 -8.40259093961127 51.116054187343934
-17.0 -8.390620118246652 50.83560763763442
-17.0 -8.378646167551285 50.555087775494165
-17.0 -8.366669086297929 50.27449457217215
-17.0 -8.354688873258715 49.99382799890234
-17.0 -8.342705527205124 49.71308802690363
-17.0 -8.330719046907998 49.432274627379854
-17.0 -8.318729431137534 49.15138777151982
-17.0 -8.306736678663283 48.87042743049724
-17.0 -8.2707395887037 48.02710520796488
-17.0 -8.258734277096966 47.74585063772731
-17.0 -8.246725822624548 47.46452243796925
-17.0 -8.234714224052132 47.183120579773764
-17.0 -8.222699480144756 46.90164503420875
-17.0 -8.21068158966681 46.62009577232696
-17.0 -8.198660551382035 46.33847276516599
-17.0 -8.186636364053534 46.05677598374824
-17.0 -8.174609026443745 45.77500539908097
-17.0 -8.162578537314477 45.49316098215618
-17.0 -8.150544895426874 45.211242703950745
-17.0 -8.138508099541438 44.929250535426235
-17.0 -8.12646814841802 44.647184447529085
-17.0 -8.114425040815822 44.365044411190425
-17.0 -8.102378775493394 44.08283039732621
-17.0 -8.090329351208634 43.800542376837065
-17.0 -8.078276766718789 43.51818032060843
-17.0 -8.066221020780453 43.23574419951037
-17.0 -8.054162112149575 42.953233984397805
-17.0 -8.042100039581438 42.67064964611022
-17.0 -8.030034801830686 42.38799115547191
-17.0 -8.017966397651296 42.10525848329175
-17.0 -8.0058948257966 41.8224516003634
-17.0 -7.993820085019273 41.539570477465105
-17.0 -7.981742174071333 41.25661508535979
-17.0 -7.969661091704148 40.97358539479505
-17.0 -7.957576836668423 40.69048137650307
-17.0 -7.945489407714212 40.40730300120072
-17.0 -7.93339880359091 40.124050239589394
-17.0 -7.921305023047255 39.840723062355224
-17.0 -7.909208064831329 39.5573214401688
-17.0 -7.8971079276905565 39.27384534368541
-17.0 -7.885004610371697 38.990294743544816
-17.0 -7.872898111620861 38.70666961037144
-17.0 -7.860788430183492 38.42296991477417
-17.0 -7.8486755648043784 38.139195627346545
-17.0 -7.836559514227648 37.85534671866651
-17.0 -7.824440277196763 37.571423159296664
-17.0 -7.812317852454532 37.287424919783994
-17.0 -7.788063434803938 36.71920428244102
-17.0 -7.763796251205073 36.15068457070389
-17.0 -7.7516578690250135 35.86631248814033
-17.0 -7.739516291576533 35.58186554839048
-17.0 -7.727371517597793 35.29734372189275
-17.0 -7.715223545826297 35.01274697906991
-17.0 -7.703072374998884 34.7280752903292
-17.0 -7.69091800385172 34.443328626062225
-17.0 -7.678760431120314 34.15850695664505
-17.0 -7.666599655539502 33.873610252438056
-17.0 -7.5691979962749 31.591731804441462
-17.0 -6.906323237938042 16.062226083592464
-17.0 -6.893958102858741 15.772541744977913
-17.0 -5.142642141632601 -25.2564322758651
-17.0 -5.129804015481429 -25.557197618038963
-17.0 -5.104117335177793 -26.158972604502154
-17.0 -5.0912687782015 -26.459982314946714
-17.0 -5.078416741458399 -26.761073547666584
-17.0 -5.065561223534666 -27.062246335784227
-17.0 -5.052702223015705 -27.363500712439972
-17.0 -5.039839738486158 -27.664836710792194
-17.0 -5.026973768529902 -27.96625436401715
-17.0 -5.014104311730041 -28.26775370530916
-17.0 -5.0012313666689145 -28.569334767880477
-17.0 -4.988354931928092 -28.870997584961415
-17.0 -4.975475006088375 -29.172742189800243
-17.0 -4.962591587729795 -29.47456861566333
-17.0 -4.949704675431612 -29.776476895835014
-17.0 -4.936814267772316 -30.07846706361778
-17.0 -4.923920363329628 -30.380539152332084
-17.0 -4.911022960680494 -30.68269319531655
-17.0 -4.898122058401089 -30.984929225927807
-17.0 -4.885217655066816 -31.28724727754068
-17.0 -4.8723097492523015 -31.58964738354802
-17.0 -4.859398339531404 -31.8921295773609
-17.0 -4.833565002662002 -32.497340362138026
-17.0 -4.820643072657335 -32.800069020015066
-17.0 -4.807717633033955 -33.10287989952327
-17.0 -4.794788682361838 -33.40577303416451
-17.0 -9.137346252369005 50.83852113234338
-17.0 -9.125488702410106 50.558445676541254
-17.0 -9.113628057233617 50.27829711166693
-17.0 -9.101764315627454 49.998075409090795
-17.0 -9.089897476378887 49.717780540168285
-17.0 -9.078027538274561 49.43741247623987
-17.0 -9.066154500100488 49.15697118863108
-17.0 -9.054278360642037 48.876456648652436
-17.0 -9.030516773010334 48.31520769675272
-17.0 -9.01863132240465 48.03447322737773
-17.0 -9.00674276564974 47.753665390725
-17.0 -8.994851101527798 47.472784158030024
-17.0 -8.971058446308424 46.91080138938004
-17.0 -8.959157452772201 46.62969979582078
-17.0 -8.935346127744921 46.06727604611001
-17.0 -8.923435793811242 45.78595383226383
-17.0 -8.911522343968064 45.50455802060213
-17.0 -8.887686091660926 44.94154548827674
-17.0 -8.87576328674923 44.65992870979746
-17.0 -8.863837361032557 44.37823821787153
-17.0 -8.851908313285437 44.09647398355333
-17.0 -8.83997614228176 43.81463597788205
-17.0 -8.828040846794764 43.53272417188177
-17.0 -8.81610242559706 43.2507385365613
-17.0 -8.804160877460603 42.968679042914395
-17.0 -8.792216201156714 42.68654566191948
-17.0 -8.780268395456062 42.40433836453988
-17.0 -8.768317459128676 42.12205712172362
-17.0 -8.756363390943942 41.83970190440356
-17.0 -8.744406189670597 41.55727268349729
-17.0 -8.732445854076733 41.27476942990713
-17.0 -8.720482382929802 40.992192114520236
-17.0 -8.7085157749966 40.70954070820839
-17.0 -8.696546029043285 40.42681518182817
-17.0 -8.684573143835362 40.144015506220796
-17.0 -8.672597118137693 39.861141652212304
-17.0 -8.660617950714485 39.5781935906133
-17.0 -8.648635640329307 39.29517129221917
-17.0 -8.636650185745067 39.012074727809896
-17.0 -8.624661585724034 38.72890386815019
-17.0 -8.612669839027822 38.44565868398935
-17.0 -8.600674944417394 38.1623391460614
-17.0 -8.588676900653068 37.878945225084905
-17.0 -8.576675706494504 37.59547689176314
-17.0 -8.564671360700714 37.31193411678391
-17.0 -8.528639401088334 36.460858848549016
-17.0 -8.516622436330719 36.17701801351036
-17.0 -8.50460231372315 35.89310259002236
-17.0 -8.492579032020727 35.60911254868026
-17.0 -8.48055258997788 35.325047860063954
-17.0 -8.4685229863484 35.040908494737806
-17.0 -8.456490219885417 34.75669442325074
-17.0 -5.92112220754 -25.128724920960433
-17.0 -5.908410309744641 -25.428980081721704
-17.0 -5.8702539964856975 -26.330232605621465
-17.0 -5.857528347462333 -26.630812570534076
-17.0 -5.844799257145516 -26.931473818834615
-17.0 -5.832066724139152 -27.232216383498702
-17.0 -5.819330747046398 -27.533040297519882
-17.0 -5.781102137270001 -28.436000465928686
-17.0 -5.768352369848109 -28.737150107670402
-17.0 -5.755599151344252 -29.0383812640047
-17.0 -5.7428424803570435 -29.339693968032414
-17.0 -5.730082355484336 -29.641088252872226
-17.0 -5.717318775323222 -29.942564151660825
-17.0 -5.704551738470038 -30.24412169755278
-17.0 -5.691781243520359 -30.5457609237207
-17.0 -5.679007289068995 -30.847481863355068
-17.0 -5.666229873709998 -31.149284549664454
-17.0 -5.563885789197725 -33.56665291140654
-17.0 -9.846477835382709 50.00230939084405
-17.0 -9.834726826684657 49.72245821584464
-17.0 -9.822972754230396 49.44253407725578
-17.0 -9.811215616821588 49.162536946538836
-17.0 -9.799455413259262 48.882466795140296
-17.0 -9.787692142343824 48.60232359449175
-17.0 -9.775925802875058 48.32210731600988
-17.0 -9.646293200308392 45.23489692593299
-17.0 -9.634489944354188 44.95380147851406
-17.0 -9.622683604186664 44.672632580317966
-17.0 -9.610874178596795 44.391390202551676
-17.0 -9.599061666374928 44.11007431640718
-17.0 -9.58724606631077 43.8286848930613
-17.0 -9.575427377193403 43.5472219036759
-17.0 -9.56360559781127 43.26568531939766
-17.0 -9.551780726952185 42.98407511135829
-17.0 -9.539952763403324 42.70239125067427
-17.0 -9.52812170595123 42.42063370844706
-17.0 -9.516287553381812 42.13880245576295
-17.0 -9.504450304480342 41.85689746369315
-17.0 -9.492609958031457 41.574918703293676
-17.0 -9.480766512819157 41.29286614560541
-17.0 -9.46891996762681 41.010739761654115
-17.0 -9.457070321237142 40.728539522450305
-17.0 -9.44521757243224 40.446265398989404
-17.0 -9.43336171999356 40.16391736225155
-17.0 -9.421502762701913 39.8814953832018
-17.0 -9.409640699337476 39.59899943278989
-17.0 -9.397775528679787 39.3164294819504
-17.0 -9.385907249507737 39.033785501602644
-17.0 -9.374035860599589 38.75106746265074
-17.0 -9.362161360732955 38.46827533598349
-17.0 -9.350283748684813 38.185409092474536
-17.0 -9.3384030232315 37.90246870298214
-17.0 -9.326519183148704 37.619454138349376
-17.0 -9.31463222721148 37.33636536940395
-17.0 -9.302742154194235 37.05320236695835
-17.0 -9.29084896287073 36.769965101809674
-17.0 -9.278952652014096 36.486653544739774
-17.0 -9.267053220396807 36.203267666515096
-17.0 -9.2551506667907 35.91980743788684
-17.0 -6.545793515329951 -28.603741289889577
-17.0 -6.533166243447674 -28.904460739946444
-17.0 -6.520535558780715 -29.20526146573279
-17.0 -6.507901459945318 -29.506143500202725
-17.0 -6.495263945556986 -29.807106876328277
-17.0 -6.4826230142304695 -30.108151627099193
-17.0 -6.469978664579773 -30.40927778552317
-17.0 -6.457330895218145 -30.71048538462566
-17.0 -5.679294741098039 -49.23947617318749
-17.0 -5.614946983941481 -50.77192295384755
-17.0 -5.60206689518719 -51.078663257135936
-17.0 -5.589183290636216 -51.38548728939244
-17.0 -5.576296168848833 -51.69239508490421
-17.0 -5.550511367802019 -52.30646210293585
-17.0 -10.565565887449532 49.447639507378746
-17.0 -10.553923978637792 49.16808512888947
-17.0 -10.542279038517425 48.888457960309395
-17.0 -10.53063106590434 48.60875797320529
-17.0 -10.518980059613835 48.328985139129145
-17.0 -10.507326018460583 48.04913942961807
-17.0 -10.495668941258655 47.769220816194434
-17.0 -10.484008826821485 47.48922927036569
-17.0 -10.472345673961902 47.20916476362447
-17.0 -10.40230288337382 45.527243945729154
-17.0 -10.390618428264379 45.246667913144954
-17.0 -10.378930925212806 44.96601869105356
-17.0 -10.367240373026341 44.685296250813586
-17.0 -10.355546770511605 44.404500563768586
-17.0 -10.34385011647459 44.12363160124726
-17.0 -10.33215040972067 43.84268933456324
-17.0 -10.320447649054591 43.56167373501527
-17.0 -10.308741833280479 43.280584773887036
-17.0 -10.297032961201834 42.99942242244731
-17.0 -10.28532103162153 42.71818665194977
-17.0 -10.273606043341818 42.436877433633164
-17.0 -10.26188799516432 42.15549473872113
-17.0 -10.250166885890037 41.874038538422354
-17.0 -10.238442714319335 41.59250880393042
-17.0 -10.226715479251961 41.31090550642387
-17.0 -10.214985179487037 41.02922861706622
-17.0 -10.203251813823046 40.747478107005826
-17.0 -10.191515381057851 40.46565394737608
-17.0 -10.179775879988686 40.18375610929516
-17.0 -10.168033309412152 39.90178456386625
-17.0 -10.156287668124225 39.61973928217733
-17.0 -10.144538954920252 39.337620235301316
-17.0 -10.132787168594943 39.05542739429595
-17.0 -10.121032307942384 38.77316073020387
-17.0 -10.109274371756024 38.49082021405252
-17.0 -10.09751335882869 38.20840581685423
-17.0 -10.085749267952568 37.92591750960611
-17.0 -10.073982097919217 37.64335526329013
-17.0 -10.062211847519558 37.36071904887302
-17.0 -10.050438515543886 37.07800883730636
-17.0 -10.038662100781854 36.795224599526456
-17.0 -10.026882602022493 36.51236630645447
-17.0 -7.3331896229479865 -28.170640473898896
-17.0 -7.320690914454383 -28.470768978712833
-17.0 -7.308188833905855 -28.770978455877085
-17.0 -7.295683379937587 -29.071268938164685
-17.0 -7.283174551184022 -29.37164045836627
-17.0 -7.270662346278876 -29.672093049290268
-17.0 -7.258146763855121 -29.97262674376273
-17.0 -7.245627802544993 -30.27324157462752
-17.0 -7.233105460979984 -30.573937574746143
-17.0 -7.220579737790854 -30.874714776997944
-17.0 -6.462795745430281 -49.07120097519225
-17.0 -6.411836447190568 -50.29487444472545
-17.0 -6.399087945589249 -50.60100117183333
-17.0 -6.386335970334234 -50.90721131095857
-17.0 -6.373580520005604 -51.213504896197335
-17.0 -6.360821593182662 -51.519881961664474
-17.0 -6.3480591884439415 -51.826342541493425
-17.0 -6.335293304367193 -52.132886669836246
-17.0 -6.322523939529399 -52.439514380863514
-17.0 -11.259690683845436 48.33584126922976
-17.0 -11.248151342083421 48.05643783274252
-17.0 -11.236608998895639 47.77696172238085
-17.0 -11.225063653110913 47.497412909786966
-17.0 -11.213515303557458 47.2177913665883
-17.0 -11.201963949062883 46.938097064397525
-17.0 -11.190409588454177 46.65832997481253
-17.0 -11.178852220557726 46.378490069416436
-17.0 -11.16729184419931 46.09857731977755
-17.0 -11.155728458204083 45.81859169744942
-17.0 -11.144162061396601 45.538533173970706
-17.0 -11.132592652600799 45.25840172086533
-17.0 -11.121020230640005 44.97819730964229
-17.0 -11.10944479433693 44.69791991179582
-17.0 -11.097866342513674 44.41756949880526
-17.0 -11.086284873991723 44.13714604213512
-17.0 -11.074700387591948 43.856649513234984
-17.0 -11.063112882134602 43.57607988353962
-17.0 -11.051522356439332 43.29543712446884
-17.0 -11.039928809325163 43.014721207427634
-17.0 -11.028332239610505 42.73393210380599
-17.0 -11.016732646113152 42.453069784979064
-17.0 -11.005130027650281 42.17213422230701
-17.0 -10.993524383038455 41.8911253871351
-17.0 -10.981915711093613 41.610043250793616
-17.0 -10.970304010631084 41.32888778459788
-17.0 -10.958689280465578 41.0476589598483
-17.0 -10.947071519411178 40.76635674783023
-17.0 -10.935450726281356 40.4849811198141
-17.0 -10.923826899888963 40.20353204705528
-17.0 -10.91220003904623 39.92200950079422
-17.0 -10.900570142564764 39.64041345225624
-17.0 -10.888937209255559 39.35874387265174
-17.0 -10.842375083939368 38.23132966724883
-17.0 -10.830726948634549 37.94929199994024
-17.0 -10.819075769354871 37.66718062851112
-17.0 -10.807421544906965 37.3849955240663
-17.0 -10.795764274096845 37.1027366576956
-17.0 -8.093057031335908 -28.33823103529942
-17.0 -8.080679392213245 -28.63793226417326
-17.0 -8.068298418705146 -28.9377142289131
-17.0 -7.993942480048906 -30.738103298953316
-17.0 -7.981538128070749 -31.03845132933256
-17.0 -7.969130430906429 -31.338880357097114
-17.0 -7.95671938720257 -31.639390415016226
-17.0 -7.944304995605076 -31.939981535876903
-17.0 -7.9318872547591175 -32.240653752483766
-17.0 -7.919466163309133 -32.541407097659196
-17.0 -7.907041719898827 -32.84224160424329
-17.0 -7.8946139231711765 -33.14315730509382
-17.0 -7.8821827717684245 -33.44415423308637
-17.0 -7.231106226952424 -49.20874703132291
-17.0 -7.218495315414915 -49.51409651255728
-17.0 -7.205880974781609 -49.81952902289059
-17.0 -7.193263203653684 -50.125044596192794
-17.0 -7.180642000631555 -50.430643266352185
-17.0 -7.168017364314874 -50.736325067275565
-17.0 -7.155389293302534 -51.04209003288804
-17.0 -7.142757786192662 -51.34793819713332
-17.0 -7.130122841582628 -51.653869593973546
-17.0 -7.117484458069031 -51.95988425738938
-17.0 -7.104842634247712 -52.265982221379865
-17.0 -11.963783924255264 47.50557076817715
-17.0 -11.95234971308073 47.22639078951723
-17.0 -11.94091253135217 46.94713828121817
-17.0 -11.929472377911825 46.66781321501203
-17.0 -11.918029251601343 46.38841556261613
-17.0 -11.906583151261765 46.10894529573314
-17.0 -11.895134075733527 45.82940238605102
-17.0 -11.883682023856473 45.549786805242945
-17.0 -11.872226994469827 45.27009852496744
-17.0 -11.860768986412225 44.990337516868216
-17.0 -11.849307998521692 44.71050375257431
-17.0 -11.837844029635647 44.43059720369993
-17.0 -11.826377078590905 44.15061784184459
-17.0 -11.814907144223682 43.87056563859295
-17.0 -11.803434225369578 43.59044056551494
-17.0 -11.791958320863596 43.310242594165636
-17.0 -11.78047942954013 43.029971696085404
-17.0 -11.768997550232958 42.74962784279967
-17.0 -11.75751268177527 42.46921100581914
-17.0 -11.746024822999628 42.18872115663961
-17.0 -11.734533972738003 41.9081582667421
-17.0 -11.723040129821742 41.6275223075927
-17.0 -11.711543293081595 41.34681325064267
-17.0 -11.700043461347702 41.06603106732843
-17.0 -11.688540633449584 40.785175729071454
-17.0 -11.677034808216165 40.50424720727838
-17.0 -11.665525984475744 40.22324547334088
-17.0 -11.654014161056024 39.94217049863579
-17.0 -11.642499336784086 39.661022254524944
-17.0 -11.630981510486405 39.37980071235531
-17.0 -8.764780357106016 -30.601937828387605
-17.0 -8.752500012132924 -30.901777178491606
-17.0 -8.740216360823208 -31.20169725676958
-17.0 -8.727929401841399 -31.50169809582852
-17.0 -8.715639133851308 -31.801779728293067
-17.0 -8.703345555516032 -32.10194218680535
-17.0 -8.691048665497943 -32.40218550402517
-17.0 -8.678748462458692 -32.70250971262988
-17.0 -8.666444945059212 -33.00291484531444
-17.0 -8.654138111959712 -33.30340093479147
-17.0 -8.009580275970396 -49.04105350652113
-17.0 -7.997095774414636 -49.34587758443216
-17.0 -7.9846078837247605 -49.65078441211712
-17.0 -7.972116602520523 -49.955774023276405
-17.0 -7.95962192942093 -50.260846451628694
-17.0 -7.947123863044231 -50.566001730911005
-17.0 -7.934622402007933 -50.87123989487855
-17.0 -7.922117544928786 -51.176560977305016
-17.0 -7.909609290422795 -51.48196501198241
-17.0 -7.897097637105205 -51.78745203272114
-17.0 -7.884582583590513 -52.09302207334986
-17.0 -12.6662096448237 46.67726661540738
-17.0 -12.654880098898959 46.39830982037429
-17.0 -12.643547613098049 46.119280639524504
-17.0 -12.632212186276526 45.840179044679566
-17.0 -12.620873817289358 45.56100500764633
-17.0 -12.598188248234973 45.00243949416939
-17.0 -12.586841045874712 44.72304796126623
-17.0 -12.57549089676272 44.44358387325587
-17.0 -12.564137799750984 44.16404720187194
-17.0 -12.5527817536909 43.88443791883332
-17.0 -12.541422757433258 43.604755995844286
-17.0 -12.530060809828262 43.32500140459431
-17.0 -12.518695909725514 43.04517411675826
-17.0 -12.507328055974012 42.76527410399618
-17.0 -12.495957247422167 42.48530133795345
-17.0 -12.484583482917781 42.205255790260665
-17.0 -12.473206761308065 41.92513743253371
-17.0 -9.52094863367896 -30.7655485724011
-17.0 -9.50878828601034 -31.0649614204235
-17.0 -9.496624669210796 -31.36445476119383
-17.0 -9.484457781961865 -31.664028627175437
-17.0 -9.472287622944377 -31.963683050849042
-17.0 -9.460114190838446 -32.2634180647129
-17.0 -9.447937484323479 -32.56323370128275
-17.0 -9.435757502078175 -32.86312999309175
-17.0 -9.423574242780521 -33.163106972690684
-17.0 -9.41138770510779 -33.46316467264773
-17.0 -8.760774888671282 -49.48259451442543
-17.0 -8.748409334583824 -49.78705996784781
-17.0 -8.73604042826154 -50.09160796020773
-17.0 -8.723668168341081 -50.3962385250736
-17.0 -8.711292553458371 -50.70095169603185
-17.0 -8.69891358224858 -51.0057475066873
-17.0 -8.686531253346152 -51.31062599066294
-17.0 -8.674145565384775 -51.61558718160006
-17.0 -8.661756516997409 -51.920631113158045
-17.0 -8.649364106816263 -52.22575781901471
-17.0 -8.636968333472806 -52.53096733286607
-17.0 -9.534394591641998 -49.31495659904678
-17.0 -9.522154007325234 -49.618899689884714
-17.0 -9.509910110099003 -49.922925042804074
-17.0 -9.497662898618163 -50.227032691205714
-17.0 -9.48541237153685 -50.531222668508455
-17.0 -9.473158527508463 -50.835495008149344
-17.0 -9.460901365185684 -51.1398497435835
-17.0 -9.448640883220456 -51.44428690828419
-17.0 -9.436377080263991 -51.74880653574271
-17.0 -9.424109954966776 -52.053408659468595
-17.0 -9.411839505978561 -52.35809331298953
-17.0 -9.399565731948371 -52.6628605298514
-17.0 -10.293363145597901 -49.451290467322835
-17.0 -10.281243505203461 -49.754794968153604
-17.0 -10.269120589565718 -50.058381488834065
-17.0 -10.220596148014076 -51.27354843536962
-17.0 -10.208456836227795 -51.57754555444373
-17.0 -10.196314241220364 -51.88162489315168
-17.0 -10.184168361659628 -52.185786484853885
-17.0 -10.172019196212704 -52.490030362928884
-17.0 -10.159866743545992 -52.794356560773124
-17.0 -11.038053694828065 -49.89028219542162
-17.0 -11.026051089939283 -50.193431146663194
-17.0 -10.990023834935075 -51.103369003640225
-17.0 -10.978008265447258 -51.4068454008519
-17.0 -10.965989451527564 -51.71040374245228
-17.0 -10.953967391861731 -52.01404406163566
-17.0 -10.941942085134778 -52.3177663916143
-17.0 -10.92991353003103 -52.621570765618294
-17.0 -11.792594826883576 -50.02536320680778
-17.0 -11.780711866302518 -50.328075845977885
-17.0 -11.768825703637082 -50.63087005668969
-17.0 -11.756936337592794 -50.93374587191912
-17.0 -11.745043766874494 -51.236703324659764
-17.0 -11.73314799018632 -51.539742447923125
-17.0 -11.721249006231707 -51.84286327473845
-17.0 -11.709346813713397 -52.14606583815287
-17.0 -12.533113112328705 -50.462317405507996
-17.0 -12.521345968701745 -50.76467631692149
-17.0 -12.509575658521026 -51.06711659351396
-17.0 -12.497802180508192 -51.3696382681331
-17.0 -96.64589377427377 98.89229186655751
-17.0 -96.64554524030056 98.6742703960912
-17.0 -96.64519663388567 98.45620361055066
-17.0 -96.64484795500653 98.23809149580657
-17.0 -96.32975898334468 -98.86223791941333
-17.0 -96.32934164824344 -99.12329715451496
-17.0 -96.32892421822287 -99.38441576532055
-17.0 -97.13015944672094 99.92220923382231
-17.0 -97.12986176392394 99.7046819722873
-17.0 -97.12956401936445 99.4871095787389
-17.0 -97.12867041491884 98.83412146551143
-17.0 -97.12837242311711 98.61636840337837
-17.0 -97.12807436945668 98.39857013893722
-17.0 -97.12777625391834 98.18072665811154
-17.0 -96.85841149929333 -98.65354800867367
-17.0 -96.85805476811858 -98.91422399107384
-17.0 -96.85769795592007 -99.17495918034332
-17.0 -96.85734106267029 -99.43575359665576
-17.0 -97.61246028565633 100.73143839952598
-17.0 -97.61221304460557 100.51435826553781
-17.0 -97.61196575234351 100.29723316754036
-17.0 -97.6117184088543 100.08006309156204
-17.0 -97.61147101412197 99.8628480236255
-17.0 -97.61122356813061 99.64558794974752
-17.0 -97.6109760708643 99.42828285593913
-17.0 -97.6107285223071 99.21093272820555
-17.0 -97.61048092244305 98.99353755254621
-17.0 -97.6102332712562 98.77609731495474
-17.0 -97.60998556873061 98.55861200141892
-17.0 -97.60973781485026 98.34108159792075
-17.0 -97.60949000959926 98.12350609043646
-17.0 -97.38560996155108 -98.44543209753832
-17.0 -97.38531350271091 -98.70572594657818
-17.0 -97.38501697662917 -98.96607883437103
-17.0 -97.38472038328305 -99.22649078100558
-17.0 -97.38442372264959 -99.48696180657959
-17.0 -97.38412699470592 -99.7474919311999
-17.0 -97.38383019942913 -100.00808117498258
-17.0 -97.38353333679628 -100.26872955805275
-17.0 -97.38323640678446 -100.52943710054474
-17.0 -97.3829394093707 -100.79020382260192
-17.0 -97.38264234453212 -101.05102974437689
-17.0 -98.09275852924638 101.10465474848907
-17.0 -98.09256131391119 100.88793036416338
-17.0 -98.09236405778628 100.67116115510753
-17.0 -98.09216676085904 100.45434710741353
-17.0 -98.09196942311677 100.23748820716763
-17.0 -98.09177204454681 100.02058444045038
-17.0 -98.09157462513649 99.80363579333655
-17.0 -98.09137716487311 99.5866422518951
-17.0 -98.09117966374401 99.36960380218926
-17.0 -98.09098212173653 99.1525204302765
-17.0 -98.09078453883792 98.93539212220853
-17.0 -98.09058691503554 98.71821886403123
-17.0 -98.09038925031663 98.50100064178473
-17.0 -98.0901915446685 98.28373744150338
-17.0 -98.08999379807847 98.06642924921579
-17.0 -97.9115968234193 -97.97803384230421
-17.0 -97.91136036092024 -98.23788782108896
-17.0 -97.91112384486752 -98.49780065122954
-17.0 -97.91088727524287 -98.75777235272112
-17.0 -97.91065065202818 -99.0178029455679
-17.0 -97.91041397520516 -99.27789244978311
-17.0 -97.91017724475566 -99.53804088538904
-17.0 -97.90994046066137 -99.79824827241708
-17.0 -97.9097036229041 -100.0585146309077
-17.0 -97.90946673146564 -100.3188399809105
-17.0 -97.90922978632767 -100.57922434248404
-17.0 -97.90899278747199 -100.8396677356961
-17.0 -97.90875573488027 -101.10017018062351
-17.0 -97.90851862853428 -101.36073169735225
-17.0 -97.90828146841571 -101.6213523059773
-17.0 -97.90804425450627 -101.88203202660284
-17.0 -98.57136052601976 101.04399799359977
-17.0 -98.57121298482667 100.82753882247908
-17.0 -98.57077017834486 100.17789297094487
-17.0 -98.57062251518525 99.96125486150308
-17.0 -98.57047482151037 99.74457198281199
-17.0 -98.57032709731078 99.52784432099247
-17.0 -98.57017934257699 99.31107186215971
-17.0 -98.57003155729956 99.09425459242314
-17.0 -98.569883741469 98.87739249788648
-17.0 -98.56973589507584 98.66048556464763
-17.0 -98.56958801811058 98.44353377879881
-17.0 -98.56944011056375 98.22653712642644
-17.0 -98.56929217242589 98.00949559361125
-17.0 -98.43584551612072 -97.77143859127855
-17.0 -98.43566865533829 -98.030912827381
-17.0 -98.43549175455563 -98.2904457482315
-17.0 -98.43531481375913 -98.55003737374126
-17.0 -98.4351378329353 -98.80968772383045
-17.0 -98.43496081207046 -99.0693968184283
-17.0 -98.43478375115109 -99.32916467747292
-17.0 -98.43460665016354 -99.58899132091159
-17.0 -98.43442950909423 -99.84887676870055
-17.0 -98.43425232792957 -100.10882104080514
-17.0 -98.43407510665591 -100.36882415719961
-17.0 -98.43389784525968 -100.6288861378674
-17.0 -98.4337205437272 -100.88900700280088
-17.0 -98.43354320204487 -101.14918677200161
-17.0 -98.43336582019901 -101.40942546548003
-17.0 -99.04837253422743 100.11844689675098
-17.0 -99.04827433837212 99.90207379498914
-17.0 -99.0481761222496 99.68565603471293
-17.0 -99.04807788585359 99.4691936020949
-17.0 -99.0479796291778 99.25268648330193
-17.0 -99.04788135221597 99.03613466449517
-17.0 -99.0477830549618 98.81953813183006
-17.0 -99.04768473740901 98.60289687145634
-17.0 -98.95830552150647 -98.34287154872007
-17.0 -98.95818785734971 -98.60214276225005
-17.0 -98.95807016660852 -98.86147255413609
-17.0 -98.95795244927392 -99.12086094423265
-17.0 -98.95783470533686 -99.3803079524033
-17.0 -98.95771693478834 -99.63981359852058
-17.0 -98.95759913761937 -99.89937790246601
-17.0 -99.52497678454493 100.92313918389617
-17.0 -99.52492784963285 100.70720849770927
-17.0 -99.52487890463756 100.49123331838
-17.0 -99.52482994955601 100.27521363215503
-17.0 -99.52478098438502 100.05914942527534
-17.0 -99.52473200912152 99.84304068397627
-17.0 -99.52468302376234 99.6268873944875
-17.0 -99.4796305310778 -99.17219581179361
-17.0 -99.47957180688866 -99.43132276044926
-17.0 -99.4795130694439 -99.6905082011507
-17.0 -99.47945431873897 -99.94975215370496
-17.0 -99.47939555476943 -100.20905463792813
-17.0 -99.47933677753073 -100.46841567364524
-17.0 -99.47927798701843 -100.72783528069027
-17.0 -100.00000000000003 100.8629359943131
-17.0 -100.0 100.43155679142457
-17.0 -100.00000000000001 100.21580060113256
-17.0 -100.0 100.00000000000001
-17.0 -100.00000000000001 -99.74107560931311
-17.0 -100.00000000000001 -100.00000000000004
-16.0 100.00000000000003 100.00000000000014
-16.0 100.0315427309607 99.66877516954342
-16.0 100.18940982582295 98.01103976940774
-16.0 98.92369018462573 99.58044752728806
-16.0 98.95500375228312 99.24973327902244
-16.0 98.98632745065188 98.91891203654174
-16.0 99.01766128464911 98.58798374791462
-16.0 99.04900525919507 98.25694836117619
-16.0 99.08035937921326 97.92580582432788
-16.0 97.8200566920005 99.49245626469617
-16.0 97.85113246652683 99.16235764617113
-16.0 97.88221827568245 98.83215243602275
-16.0 97.91331412432847 98.50184058261368
-16.0 97.94442001732926 98.17142203427326
-16.0 97.97553595955229 97.84089673929736
-16.0 96.65896887407612 100.06345164583824
-16.0 96.68978857095311 99.7341785992024
-16.0 96.72061819764924 99.4047994638592
-16.0 96.75145775896424 99.07531418852922
-16.0 96.78230725970093 98.74572272189995
-16.0 96.81316670466516 98.41602501262578
-16.0 96.844036098666 98.08622100932806
-16.0 96.87491544651552 97.7563106605949
-16.0 95.56417051452786 99.97490645774742
-16.0 95.59475575380215 99.64624368519046
-16.0 95.62535082866259 99.3174752214211
-16.0 95.65595574385436 98.98860101544896
-16.0 95.68657050412565 98.65962101625087
-16.0 95.7171951142277 98.33053517277075
-16.0 95.74782957891485 98.00134343391976
-16.0 95.77847390294447 97.6720457485761
-16.0 94.47351648203458 99.88669645486712
-16.0 94.50386881637787 99.55864169962742
-16.0 94.53423089292957 99.23048164844072
-16.0 94.56460271638083 98.90221625060356
-16.0 94.59498429142592 98.57384545537987
-16.0 94.62537562276201 98.24536921200098
-16.0 94.65577671508935 97.91678746966568
-16.0 94.68618757311123 97.58810017754003
-16.0 93.44723487742922 99.14381687025542
-16.0 93.47737515094211 98.8161580318516
-16.0 93.50752508341061 98.4883941896835
-16.0 93.53768467947853 98.16052529326767
-16.0 93.56785394379263 97.83255129208837
-16.0 93.59803288100272 97.5044721355974
-16.0 87.1833993926163 96.6846922951098
-16.0 100.00000000000003 -100.00000000000017
-16.0 100.03357873576886 -100.38709997773122
-16.0 100.06716905665793 -100.77433351021618
-16.0 100.10077096866385 -101.16170066658424
-16.0 100.16800959003308 -101.93683612772507
-16.0 98.82105052262186 -99.68860673412196
-16.0 98.85435814178066 -100.0748670348567
-16.0 97.64687866957291 -99.37847537138005
-16.0 97.67991709168538 -99.76389961521244
-16.0 97.71296686629407 -100.14945629658261
-16.0 97.74602799925133 -100.53514548376354
-16.0 96.44469556209063 -98.68513828922454
-16.0 96.47745545801088 -99.06959825660165
-16.0 96.51022658602533 -99.4541900403487
-16.0 96.5430089519115 -99.83891370826952
-16.0 96.57580256145098 -100.22376932821425
-16.0 95.28025753727235 -98.37833616588962
-16.0 95.31275213904796 -98.76196779640787
-16.0 95.34525785947156 -99.14573069380823
-16.0 95.37777470425083 -99.5296249254755
-16.0 95.41030267909731 -99.91365055884052
-16.0 95.44284178972654 -100.29780766138032
-16.0 94.15274019539493 -98.4555764585915
-16.0 94.18498237846573 -98.8385140205017
-16.0 94.21723557347227 -99.22158237020054
-16.0 94.24949978605699 -99.6047815747029
-16.0 94.28177502186624 -99.98811170106958
-16.0 21.764234022675247 -5.699220558448853
-16.0 20.904067478078616 -5.598092972492113
-16.0 20.920843626748265 -5.910128374802191
-16.0 20.937624645764558 -6.222254365280423
-16.0 20.9544105372487 -6.534470983380978
-16.0 20.971201303323134 -6.84677826858103
-16.0 20.0468411218198 -5.49731105697644
-16.0 20.06346439296569 -5.808798486226001
-16.0 20.080092481825428 -6.120376189964194
-16.0 20.096725390493702 -6.4320442074413435
-16.0 20.11336312106642 -6.743802577930622
-16.0 20.130005675640707 -7.0556513407278825
-16.0 19.192539904560576 -5.396873042589559
-16.0 19.20901124302021 -5.707814418655864
-16.0 19.225487347013903 -6.018845757157432
-16.0 19.24196821861013 -6.329967097142143
-16.0 19.29143945971661 -7.263871516813685
-16.0 18.27591460221859 -4.056083985108695
-16.0 18.357469223118457 -5.607174404768532
-16.0 17.428018667482768 -3.958494403017126
-16.0 17.508823481189204 -5.5068766892629135
-16.0 17.54117803018375 -6.126854735677826
-16.0 17.55736230349874 -6.43697787026885
-16.0 17.573551245384063 -6.74719046403052
-16.0 17.589744857860094 -7.057492555676987
-16.0 17.605943142948345 -7.367884183944741
-16.0 17.622146102671515 -7.678365387592566
-16.0 17.638353739053464 -7.988936205401707
-16.0 16.679085017557362 -5.7163232001557756
-16.0 16.69511538275602 -6.0258159459228136
-16.0 16.711150363608493 -6.335397804530131
-16.0 16.727189962108564 -6.645068814470869
-16.0 16.743234180251157 -6.954829014260413
-16.0 16.759283020032342 -7.2646784424363355
-16.0 16.77533648344935 -7.574617137558349
-16.0 16.791394572500565 -7.884645138208475
-16.0 16.807457289185503 -8.194762482990882
-16.0 16.823524635504857 -8.504969210532082
-16.0 15.83603940494278 -5.616166083801103
-16.0 15.851921446709106 -5.925119744422887
-16.0 15.867808053668433 -6.234162211830902
-16.0 15.883699227789391 -6.54329352432103
-16.0 15.899594971041752 -6.852513720211251
-16.0 15.915495285396416 -7.161822837841577
-16.0 15.931400172825418 -7.471220915574013
-16.0 15.947309635301933 -7.780707991792718
-16.0 15.963223674800263 -8.090284104903846
-16.0 15.979142293295851 -8.399949293335748
-16.0 15.99506549276527 -8.709703595538798
-16.0 14.980116910284723 -5.208019958220824
-16.0 14.995847026779398 -5.516347942859669
-16.0 15.011581656495954 -5.824764391726183
-16.0 15.027320801377048 -6.133269342898577
-16.0 15.043064463366443 -6.441862834476826
-16.0 15.058812644409024 -6.750544904582845
-16.0 15.074565346450784 -7.059315591360439
-16.0 15.090322571438845 -7.368174932975248
-16.0 15.106084321321445 -7.677122967614923
-16.0 15.121850598047935 -7.986159733488957
-16.0 15.137621403568792 -8.295285268828888
-16.0 15.169176608801093 -8.913802800942166
-16.0 15.1849610124191 -9.223194874288394
-16.0 15.200749952644586 -9.532675870246308
-16.0 14.174081545009388 -5.724748160136763
-16.0 14.189674132932481 -6.032717460284568
-16.0 14.205271188339063 -6.340774997726231
-16.0 14.220872713149397 -6.648920810388944
-16.0 14.236478709284846 -6.957154936221638
-16.0 14.298947445543712 -8.190975330991847
-16.0 14.330208691660394 -8.808416395668761
-16.0 14.345846040962535 -9.117269778089938
-16.0 14.36148787700044 -9.426211778056844
-16.0 14.377134201705418 -9.735242433714706
-16.0 14.392785017009878 -10.044361783230704
-16.0 13.354853672201667 -5.932504838264553
-16.0 13.370305019934564 -6.240028278649062
-16.0 13.401220977834464 -6.8553391175811536
-16.0 13.416685591796545 -7.1631265916610385
-16.0 13.432154631631915 -7.471002152541091
-16.0 13.447628099240829 -7.778965838041492
-16.0 13.47858832538575 -8.395157734292626
-16.0 13.494075087727715 -8.703386020792145
-16.0 13.50956628545514 -9.01170258340962
-16.0 13.525061920473727 -9.320107460073746
-16.0 13.540561994690272 -9.628600688734863
-16.0 13.556066510012661 -9.937182307365125
-16.0 13.57157546834988 -10.24585235395845
-16.0 13.58708887161201 -10.554610866530464
-16.0 12.538151672285167 -6.1396209535175785
-16.0 12.553462576047464 -6.446699817557191
-16.0 12.56877785305766 -6.753866392421653
-16.0 12.58409750518972 -7.061120715695505
-16.0 12.599421534318676 -7.368462824984856
-16.0 12.614749942320634 -7.675892757917208
-16.0 12.630082731072767 -7.983410552141671
-16.0 12.645419902453321 -8.291016245328782
-16.0 12.660761458341625 -8.598709875170707
-16.0 12.676107400618076 -8.906491479381078
-16.0 12.691457731164148 -9.214361095695178
-16.0 12.706812451862387 -9.522318761869798
-16.0 12.72217156459642 -9.830364515683382
-16.0 12.737535071250953 -10.138498394935997
-16.0 12.75290297371177 -10.446720437449276
-16.0 12.768275273865731 -10.755030681066579
-16.0 11.754310709476572 -6.959458044414308
-16.0 11.769490615372474 -7.2662685461439604
-16.0 11.784674851658576 -7.573166572078265
-16.0 11.799863420188148 -7.880152159674815
-16.0 11.815056322815515 -8.18722534641249
-16.0 11.830253561396061 -8.49438616979165
-16.0 11.84545513778623 -8.801634667333978
-16.0 11.860661053843526 -9.108970876582664
-16.0 11.906304858609108 -10.03150615031983
-16.0 11.921528151931161 -10.339193582254309
-16.0 11.951987787350845 -10.954832183027156
-16.0 11.967224133177298 -11.26278342723107
-16.0 10.957388700372727 -7.470785532248252
-16.0 10.972433930499415 -7.777240750767821
-16.0 10.98748344660758 -8.083783270138106
-16.0 11.00253725052892 -8.390413127668966
-16.0 11.017595344096188 -8.697130360691427
-16.0 11.032657729143168 -9.003935006557889
-16.0 11.047724407504697 -9.31082710264195
-16.0 11.062795381016661 -9.617806686338593
-16.0 11.077870651515987 -9.924873795064114
-16.0 11.09295022084065 -10.23202846625609
-16.0 11.123122263323147 -10.846600645896752
-16.0 11.138214740162176 -11.154018229327503
-16.0 11.153311523188943 -11.461523525188877
-16.0 11.168412614246673 -11.769116571025457
-16.0 10.162687228848444 -7.9806882609599565
-16.0 10.177598474318884 -8.286788983742591
-16.0 10.192513961682456 -8.59297678486855
-16.0 10.207433692749488 -8.89925170150073
-16.0 10.222357669331348 -9.205613770823083
-16.0 10.26715509029499 -10.125223267088888
-16.0 10.282096067070423 -10.431934319435557
-16.0 10.29704129843298 -10.738732710710169
-16.0 10.311990786200223 -11.04561847822398
-16.0 10.326944532190746 -11.35259165930942
-16.0 10.341902538224186 -11.659652291320272
-16.0 10.356864806121207 -11.966800411631517
-16.0 10.37183133770352 -12.274036057639528
-16.0 10.386802134793868 -12.581359266761904
-16.0 9.370197026881723 -8.489172177171959
-16.0 9.384974974607676 -8.79491918924814
-16.0 9.399757120456261 -9.100753058002576
-16.0 9.414543466216639 -9.40667382045194
-16.0 9.429334013678986 -9.71268151363395
-16.0 9.444128764634494 -10.018776174607304
-16.0 9.458927720875376 -10.324957840451853
-16.0 9.473730884194865 -10.631226548268451
-16.0 9.48853825638721 -10.937582335179131
-16.0 9.503349839247681 -11.244025238326953
-16.0 9.518165634572576 -11.550555294876194
-16.0 9.5329856441592 -11.857172542012174
-16.0 9.5478098698059 -12.163877016941473
-16.0 9.56263831331203 -12.470668756891747
-16.0 9.577470976477976 -12.77754779911191
-16.0 9.59230786110515 -13.084514180872075
-16.0 8.579908877955733 -8.99624319445968
-16.0 8.59455421067841 -9.3016372784261
-16.0 8.609203698068566 -9.607117998243858
-16.0 8.623857341894375 -9.912685390784137
-16.0 8.638515143925025 -10.21833949293913
-16.0 8.653177105930697 -10.524080341621877
-16.0 8.667843229682585 -10.829907973766469
-16.0 8.682513516952886 -11.135822426327875
-16.0 8.697187969514802 -11.44182373628214
-16.0 8.711866589142547 -11.747911940626219
-16.0 8.726549377611335 -12.054087076378169
-16.0 8.741236336697392 -12.360349180576987
-16.0 7.7918136167015435 -9.501907193580612
-16.0 7.8063270130220035 -9.80694912960909
-16.0 7.82084452086764 -10.11207748149589
-16.0 7.835366141985841 -10.417292285967518
-16.0 7.849891878124989 -10.722593579771383
-16.0 7.864421731034452 -11.027981399675632
-16.0 7.878955702464594 -11.33345578246935
-16.0 7.893493794166766 -11.639016764962387
-16.0 7.908036007893321 -11.944664383985556
-16.0 7.922582345397596 -12.250398676390471
-16.0 7.995375951021417 -13.780371530413722
-16.0 8.009947068067943 -14.086626638165715
-16.0 8.024522321193468 -14.39296867784718
-16.0 7.005902128543793 -10.006170022701665
-16.0 7.0202842629530675 -10.310860588547916
-16.0 7.03467046605561 -10.615637351089262
-16.0 7.049060739578209 -10.920500346908288
-16.0 7.063455085248633 -11.22544961260837
-16.0 7.077853504795622 -11.530485184813518
-16.0 7.092255999948904 -11.83560710016856
-16.0 7.106662572439177 -12.140815395338988
-16.0 7.121073223998126 -12.44611010701112
-16.0 7.135487956358413 -12.751491271892055
-16.0 7.164329670418559 -13.362513108212514
-16.0 7.178756655588655 -13.66815385317021
-16.0 7.193187728500564 -13.973881198373075
-16.0 7.2076228908918605 -14.279695180632253
-16.0 7.22206214450111 -14.585595836779834
-16.0 7.236505491067857 -14.891583203668707
-16.0 7.250952932332635 -15.19765731817274
-16.0 6.222165349349308 -10.50903749762462
-16.0 6.236416892258277 -10.813377468637084
-16.0 6.250672461336558 -11.117803418007078
-16.0 6.2649320582905235 -11.422315382174013
-16.0 6.279195684827518 -11.726913397597984
-16.0 6.293463342655845 -12.031597500759613
-16.0 6.307735033484777 -12.336367728160203
-16.0 6.322010759024552 -12.641224116321705
-16.0 6.336290520986374 -12.946166701786646
-16.0 6.350574321082415 -13.251195521118316
-16.0 6.364862161025819 -13.556310610900596
-16.0 6.379154042530695 -13.861512007738154
-16.0 6.393449967312124 -14.166799748256281
-16.0 6.407749937086158 -14.472173869101084
-16.0 6.422053953569817 -14.777634406939313
-16.0 6.436362018481094 -15.083181398458574
-16.0 6.45067413353896 -15.388814880367148
-16.0 6.464990300463351 -15.694534889394193
-16.0 5.468841484567553 -11.618581461108475
-16.0 5.482971071924482 -11.92274316821712
-16.0 5.497104646605546 -12.226990708781814
-16.0 5.511242210298798 -12.531324119140598
-16.0 5.525383764693243 -12.83574343565195
-16.0 5.539529311478839 -13.140248694694979
-16.0 5.553678852346504 -13.444839932669243
-16.0 5.567832388988107 -13.749517185994945
-16.0 5.581989923096471 -14.054280491112777
-16.0 5.59615145636538 -14.359129884484107
-16.0 4.661179911440493 -11.510609487597469
-16.0 4.675172266408728 -11.814250585402387
-16.0 4.689168563412553 -12.117977227350297
-16.0 4.703168804118075 -12.42178944959656
-16.0 4.717172990192339 -12.72568728831685
-16.0 4.731181123303328 -13.029670779707319
-16.0 4.745193205119971 -13.333739959984438
-16.0 4.759209237312132 -13.63789486538519
-16.0 4.773229221550621 -13.942135532166903
-16.0 4.787253159507187 -14.246461996607442
-16.0 4.801281052854524 -14.550874295005046
-16.0 4.815312903266267 -14.855372463678524
-16.0 4.829348712417001 -15.159956538967089
-16.0 4.8433884819822515 -15.464626557230549
-16.0 0.8346271143001854 54.69893008023059
-16.0 0.847646311746393 54.414113281635835
-16.0 0.8606690586655896 54.1292188323612
-16.0 1.9407530365082835 30.500568752072205
-16.0 1.9540755270138577 30.209116908685964
-16.0 1.9674016917525965 29.917584685281582
-16.0 1.9807315322446928 29.625972048602225
-16.0 1.9940650500111816 29.33427896537277
-16.0 2.007402246573935 29.042505402299685
-16.0 2.0207431234556643 28.75065132607106
-16.0 3.8839133735489715 -12.009325474428307
-16.0 3.8977771240635533 -12.31261828908868
-16.0 3.911644774999188 -12.615996432006945
-16.0 3.92551632800212 -12.919459939197532
-16.0 3.939391784719524 -13.223008846695054
-16.0 3.9532711467994988 -13.52664319055449
-16.0 3.9671544158910703 -13.830363006851035
-16.0 3.981041593644196 -14.134168331680288
-16.0 3.9949326817097583 -14.438059201158076
-16.0 4.0088276817395725 -14.742035651420666
-16.0 4.022726595386385 -15.04609771862459
-16.0 4.0366294243038725 -15.350245438946837
-16.0 4.050536170146643 -15.654478848584699
-16.0 4.064446834570235 -15.95879798375592
-16.0 4.078361419231124 -16.263202880698667
-16.0 4.092279925786717 -16.56769357567147
-16.0 4.106202355895356 -16.872270104953383
-16.0 4.12012871121632 -17.17693250484384
-16.0 0.048833175081082154 54.98107999586912
-16.0 0.06172278689191895 54.69679752554055
-16.0 0.07461590672646942 54.412437685182354
-16.0 0.08751253601704007 54.12800044320482
-16.0 0.10041267619671529 53.843485768001045
-16.0 1.1307418103433968 31.119410302789753
-16.0 1.1439275348979014 30.82859701807349
-16.0 1.1571168890608334 30.537703681757154
-16.0 1.1703098743310714 30.246730260782687
-16.0 1.1835064922083205 29.955676722073896
-16.0 1.1967067441931103 29.664543032536308
-16.0 1.2099106317867991 29.373329159057292
-16.0 1.2231181564915703 29.08203506850591
-16.0 1.2363293198104353 28.79066072773298
-16.0 1.2495441232472349 28.4992061035711
-16.0 1.2892103893160751 27.624360198802993
-16.0 1.315672794892698 27.040727569786608
-16.0 1.342149797103754 26.45677300964026
-16.0 1.3553937757218488 26.164674922142726
-16.0 3.1225215860285784 -12.809614348383608
-16.0 3.136261245578359 -13.112644758888397
-16.0 3.150004765859623 -13.41576031844962
-16.0 3.1637521484998485 -13.718961062961556
-16.0 3.1775033951274314 -14.022247028338748
-16.0 3.19125850737168 -14.325618250515843
-16.0 3.2050174868628196 -14.629074765447777
-16.0 3.2187803352319957 -14.93261660910963
-16.0 3.232547054111267 -15.236243817496794
-16.0 3.2463176451336127 -15.539956426624826
-16.0 3.2600921099329283 -15.84375447252961
-16.0 3.2738704501440297 -16.14763799126731
-16.0 3.287652667402656 -16.451607018914313
-16.0 3.3014387633454625 -16.755661591567403
-16.0 3.315228739610029 -17.05980174534359
-16.0 3.3290225978348547 -17.364027516380315
-16.0 3.3428203396593634 -17.66833894083527
-16.0 3.3566219667238992 -17.972736054886603
-16.0 -0.6576122382174253 53.55859137362115
-16.0 0.336850263434821 31.44572909921868
-16.0 0.34990374748367076 31.155471905514798
-16.0 0.36296081842146866 30.86513495376958
-16.0 0.37602147772684696 30.5747182111042
-16.0 0.38908572687925075 30.284221644621677
-16.0 0.4021535673589403 29.993645221407007
-16.0 0.41522500064698736 29.702988908527022
-16.0 0.42830002822528074 29.412252673030526
-16.0 0.4413786515765225 29.12143648194813
-16.0 0.4544608721842302 28.83054030229231
-16.0 0.4675466915327394 28.539564101057454
-16.0 0.48063611110720084 28.24850784521971
-16.0 0.49372913239358224 27.957371501737132
-16.0 0.5068257568786714 27.666155037549505
-16.0 0.5199259860500723 27.3748584195785
-16.0 0.5330298213962082 27.083481614727493
-16.0 0.5461372644063238 26.792024589881716
-16.0 0.5592483165704819 26.50048731190809
-16.0 0.5723629793795662 26.208869747655353
-16.0 0.5854812543252833 25.917171863953946
-16.0 0.5986031429001599 25.625393627616006
